# .PCD v0.7 - Point Cloud Data file format
VERSION 0.7
FIELDS x y z rgb
SIZE 4 4 4 4
TYPE F F F F
COUNT 1 1 1 1
WIDTH 1423
HEIGHT 1
VIEWPOINT 0 0 0 1 0 0 0
POINTS 1423
DATA ascii
-7.4761372 -5.2466655 5.6536646 0
-6.2886267 -5.2262392 5.5249863 0
-8.3757401 -4.9595799 5.5601773 0
-8.0666752 -4.9611697 5.5996232 0
-7.6864448 -4.9596004 5.6861124 0
-7.4939704 -4.9130607 5.6865597 0
-6.252419 -5.0397682 5.6300983 0
-6.0870261 -5.078125 5.6538973 0
-8.365366 -4.6554723 5.5219526 0
-8.0371265 -4.6175499 5.5475969 0
-7.7334714 -4.5917034 5.6726131 0
-7.4113612 -4.622087 5.6633477 0
-7.1888824 -4.5207782 5.6974363 0
-5.834662 -4.6133671 5.5337076 0
-5.7598772 -4.5801959 5.5764775 0
-8.9213686 -4.1318793 5.5172567 0
-8.3180122 -4.2189879 5.5014887 0
-8.0452871 -4.2662115 5.5724521 0
-7.7829895 -4.2442837 5.6484513 0
-7.3929501 -4.2879496 5.6188068 0
-7.1311255 -4.2419724 5.7035499 0
-8.2679672 -3.9328828 5.4735079 0
-8.0482626 -3.9088793 5.5646791 0
-7.7260904 -3.9239266 5.6220388 0
-7.4351654 -3.8968434 5.6986976 0
-7.025991 -3.8641481 5.6643143 0
-6.8084497 -3.8045518 5.653966 0
-5.648715 -3.8121886 5.7170401 0
-8.0117502 -3.5776186 5.5274086 0
-7.7433257 -3.5427556 5.5861731 0
-7.383009 -3.5677447 5.6891255 0
-7.0158396 -3.580965 5.6752796 0
-6.7350712 -3.5039275 5.6530032 0
-6.4476366 -3.6001658 5.639461 0
-5.5267816 -3.5931375 5.5848761 0
-5.4246302 -3.5419328 5.5409174 0
-8.6898928 -3.2630529 5.4417982 0
-7.9977756 -3.2487137 5.4468927 0
-7.7334604 -3.2403429 5.5488124 0
-7.3617215 -3.2134266 5.6433115 0
-6.9793596 -3.2194216 5.6752124 0
-6.7393727 -3.1965022 5.6690378 0
-5.4906688 -3.3016298 5.7019186 0
-5.2187839 -3.1792533 5.6686907 0
-8.2661543 -2.9818625 5.4167395 0
-8.0209351 -2.9877148 5.4403052 0
-7.6799026 -2.8633928 5.5148191 0
-7.3615317 -2.8437343 5.6200109 0
-7.0264473 -2.8379004 5.6863799 0
-6.6758604 -2.8521793 5.6651592 0
-6.4294958 -2.8182821 5.6297307 0
-5.2267103 -2.8711526 5.5949788 0
-4.9841671 -2.8050451 5.6369348 0
-8.8271875 -2.4255476 5.592577 0
-7.6208305 -2.6050549 5.5326014 0
-7.3572087 -2.5352087 5.583364 0
-7.0327849 -2.505728 5.6184101 0
-6.6600561 -2.5228398 5.6678815 0
-6.3719482 -2.4982836 5.6016321 0
-6.1053734 -2.4357929 5.6554012 0
-5.1017914 -2.6350689 5.5978994 0
-4.8913651 -2.4770901 5.6015429 0
-4.4821854 -2.5575786 5.5464468 0
-4.3577847 -2.4983125 5.6557646 0
-8.8569193 -2.1654038 5.6052132 0
-7.6012526 -2.2888489 5.4840765 0
-7.2551575 -2.2212822 5.5090761 0
-7.0078573 -2.1536746 5.5576015 0
-6.6442499 -2.1600084 5.6835742 0
-6.3437328 -2.1548002 5.6378016 0
-6.0614996 -2.1479635 5.625618 0
-5.6646676 -2.0932572 5.6764607 0
-5.2204704 -2.0508506 5.7060575 0
-4.8600025 -2.1425788 5.6691055 0
-4.6825504 -2.099684 5.6049576 0
-4.32549 -2.0293727 5.4304571 0
-8.8154659 -1.967409 5.6265268 0
-8.4031868 -1.7542752 5.5435305 0
-8.2387562 -1.7686228 5.6026564 0
-6.9481878 -1.8533714 5.5200276 0
-6.6864357 -1.8005714 5.6027579 0
-6.3284979 -1.8135092 5.6561146 0
-6.0366893 -1.7854909 5.6287923 0
-5.6388292 -1.835109 5.6209993 0
-5.2736344 -1.8011264 5.5914936 0
-4.8903489 -1.8486522 5.6634898 0
-4.6113806 -1.7996651 5.6026821 0
-4.2202106 -1.7848941 5.5187669 0
-8.3050861 -1.466706 5.6895051 0
-8.2434816 -1.5720628 5.7201185 0
-6.8754559 -1.5404265 5.496994 0
-6.6549187 -1.4694616 5.5344858 0
-6.3083858 -1.4642059 5.659255 0
-5.9898634 -1.456565 5.6112814 0
-5.6751518 -1.4017397 5.6411896 0
-5.2484093 -1.4669389 5.6222072 0
-4.9849105 -1.4677355 5.6193414 0
-4.5364571 -1.4871019 5.6542511 0
-4.3082356 -1.428154 5.5806422 0
-4.0406957 -1.4325249 5.7200136 0
-6.5768347 -1.1542776 5.4922876 0
-6.3146248 -1.106817 5.6071396 0
-5.991034 -1.1049007 5.6106339 0
-5.6465664 -1.0979022 5.5998955 0
-5.2604666 -1.0930376 5.6630216 0
-4.9654078 -1.117941 5.6431627 0
-4.4961905 -1.1730129 5.7204189 0
-4.2522678 -1.1336937 5.6407428 0
-6.5538883 -0.84120333 5.5247927 0
-6.2895689 -0.78256154 5.6085224 0
-5.9739799 -0.7594142 5.6283822 0
-5.6221423 -0.75688136 5.5939126 0
-5.3440232 -0.73319292 5.6179237 0
-4.8663807 -0.82541192 5.580934 0
-4.6527739 -0.79673338 5.6286249 0
-4.166575 -0.84289718 5.6814079 0
-3.9814401 -0.78183317 5.6637225 0
-6.2445226 -0.45331854 5.6046109 0
-5.9563446 -0.41950899 5.5728407 0
-5.6339259 -0.40833989 5.5855727 0
-5.2855492 -0.40134025 5.5743046 0
-4.9970002 -0.33148813 5.6312966 0
-4.69173 -0.58115017 5.6770697 0
-4.1719098 -0.42661104 5.7148008 0
-3.7601936 -0.45147046 5.700563 0
-6.1824288 -0.18112811 5.6456404 0
-5.9384909 -0.086553156 5.5714464 0
-5.6101246 -0.062752753 5.5450554 0
-5.2777801 -0.053212285 5.5286136 0
-4.9546657 -0.048931211 5.5446792 0
-4.5617824 0.017165035 5.6040578 0
-4.3922 0.0052119792 5.4553785 0
-3.7877512 0.10029283 5.7425146 0
-5.8910203 0.20251486 5.6254182 0
-5.5866041 0.25894216 5.5369282 0
-5.2867374 0.29058191 5.5307436 0
-4.94979 0.29744789 5.5282021 0
-4.6337514 0.3131527 5.6039619 0
-4.2621861 0.29645059 5.5471754 0
-3.858217 0.39286956 5.6739645 0
-5.8915725 0.68621731 5.6137171 0
-5.6003947 0.61101115 5.5479813 0
-5.2555509 0.61926794 5.5023942 0
-4.9444399 0.62695062 5.5227203 0
-4.5847235 0.63090014 5.5670052 0
-4.262074 0.66500938 5.5722132 0
-3.9514804 0.61483097 5.5998368 0
-3.1570501 0.72556078 5.6978598 0
-2.7242057 0.66686761 5.6206841 0
-5.8886132 0.91359007 5.7265563 0
-5.6767125 0.94397485 5.5547943 0
-5.2297878 0.94732535 5.5129004 0
-4.943356 0.97607756 5.4951711 0
-4.5794325 0.97446847 5.5311804 0
-4.2410564 0.97974527 5.6063819 0
-3.8915884 0.97234523 5.5858111 0
-3.6710601 1.0205584 5.6679335 0
-2.7239842 0.88010693 5.6567016 0
-5.5627909 1.2932581 5.4598293 0
-5.1630054 1.314562 5.5105195 0
-4.884522 1.2906694 5.4724655 0
-4.5741849 1.3243316 5.4980955 0
-4.2699189 1.3368063 5.5981388 0
-3.8913913 1.3187113 5.6475072 0
-3.5810404 1.2826349 5.6772795 0
-2.7063437 1.4555069 5.4951835 0
-5.2984443 1.6257049 5.4390936 0
-4.889255 1.6706482 5.5112152 0
-4.5868464 1.6298816 5.4518113 0
-4.2058635 1.6913444 5.5348577 0
-3.960207 1.7517778 5.6820612 0
-2.7280898 1.5625322 5.6197844 0
-5.526123 2.1380172 5.5540781 0
-3.760637 1.4055618 5.5638108 0
-5.1771069 0.5472554 5.5080914 0
-4.1565552 1.9333235 5.5062833 0
-3.9499066 1.9685684 5.6292915 0
-5.5171285 2.2485468 5.666707 0
-6.9171047 -3.6502073 5.6629572 0
-8.4524193 -7.0494328 5.6020994 0
-4.2743287 1.3015031 5.6157804 0
-4.0795884 1.7649826 5.6571946 0
-2.3590498 2.2123315 5.7460203 0
-5.7955809 2.6869559 5.6275787 0
-4.7802095 2.6531174 5.4517393 0
-9.7720242 -9.3759127 5.6368713 0
-3.7565999 2.6555812 5.439208 0
-3.4998803 2.228667 5.6311908 0
-3.2531838 2.8579426 5.7138181 0
-2.9014101 2.6028042 5.7558203 0
-4.7806311 3.0065658 5.5074568 0
-3.351048 3.1073799 5.4358974 0
-3.4761364 2.5863655 5.5782628 0
-2.9830313 3.1479802 5.5890799 0
-2.0472553 3.096415 5.5419598 0
-1.9039097 3.1622548 5.4492159 0
-3.4562364 2.6651986 5.5585957 0
-2.8807056 3.4887161 5.6131454 0
-2.6407304 3.5390024 5.706584 0
-1.97769 3.29251 5.6160498 0
-1.8518305 3.3773749 5.4833212 0
-3.4086475 2.4437754 5.5087061 0
-2.9933445 2.9484432 5.6319098 0
-1.6899436 3.6465011 5.5315375 0
-1.3784027 3.8476579 5.6475272 0
-1.4098628 3.7752807 5.5218506 0
-2.67594 4.0613999 5.5620232 0
-2.4775786 4.1032233 5.5771751 0
-3.0032542 2.661016 5.5794311 0
-2.8286803 2.751708 5.5834513 0
-4.1154833 0.13834003 5.377985 0
-1.8929982 3.1624846 5.5282564 0
-0.82537174 4.2636094 5.5702209 0
-2.3073893 4.4098678 5.4637785 0
-2.4158556 3.912298 5.4779935 0
-1.8489425 4.1228542 5.2812867 0
-1.3242528 3.9184473 5.0404377 0
-1.1550975 4.2960939 5.5530663 0
-0.74817872 4.493454 5.5539527 0
-0.60912967 4.4255686 5.4461861 0
-2.6520557 3.7154126 5.3398538 0
-1.9054527 4.5307484 5.4417152 0
-1.4477232 4.7927785 5.4480786 0
-1.0536048 4.7272363 5.4809847 0
-0.7374506 4.7575946 5.4734282 0
-0.34288025 4.7407961 5.4648972 0
-0.074064732 4.8515472 5.4765654 0
0.21601582 4.9238896 5.5734916 0
-5.9698715 0.72342503 4.2126703 0
-1.6847944 5.0915699 5.4569974 0
-1.4937427 5.2969995 5.330699 0
0.11712933 5.0773768 5.412261 0
0.18712902 5.1542645 5.4448767 0
-3.7756069 3.6925156 3.8210535 0
-2.9442968 6.4580941 5.4221959 0
20.025784 1.3611515 -19.876408 0
20.18795 1.3060942 -19.887489 0
18.94363 -7.6731768 -23.35564 0
19.459751 -7.4836445 -23.457668 0
18.432213 -9.9985352 -26.076405 0
5.3505173 9.1419077 5.5054502 0
5.5467501 9.1242619 5.4331532 0
5.8425694 9.1528473 5.5080175 0
5.9134798 9.2650642 5.546237 0
5.0202093 9.8928871 5.5208998 0
5.0854502 9.874155 5.6746168 0
5.7053709 9.8980808 5.4313002 0
5.0279093 9.9594984 5.616519 0
5.6420898 10.006819 5.5061979 0
5.7598295 10.006706 5.4996843 0
-10.740759 -12.211252 5.8858767 0
-10.454051 -12.164117 5.9197111 0
-10.14166 -12.219372 5.8017855 0
-9.8651009 -12.255457 5.8085976 0
-10.779245 -11.989818 5.9279475 0
-10.395756 -11.918045 5.9985318 0
-10.191482 -12.024123 5.8773503 0
-9.8145237 -12.008434 5.812685 0
-9.0178986 -11.79629 5.9085608 0
-8.9118624 -11.84683 6.0180349 0
-10.905424 -11.638231 5.8847227 0
-10.44381 -11.574067 5.8426113 0
-10.197711 -11.577444 5.8488789 0
-9.8271141 -11.583809 5.8387427 0
-9.5254822 -11.556611 5.9124351 0
-9.1477718 -11.570665 5.8760457 0
-8.8252211 -11.59539 5.925653 0
-10.849308 -11.225394 5.8917923 0
-10.520058 -11.22861 5.8673368 0
-10.167924 -11.286224 5.8564839 0
-9.8944836 -11.234257 5.8268352 0
-9.3748779 -11.326032 5.8350554 0
-9.1754274 -11.318494 5.8550196 0
-8.7487183 -11.366947 5.8744688 0
-8.5587273 -11.292221 6.005929 0
-10.851767 -10.87889 5.8463135 0
-10.507246 -10.900911 5.873755 0
-10.156891 -10.92265 5.9004545 0
-9.8677464 -10.913058 5.8715839 0
-9.3883896 -10.785613 5.9386601 0
-9.0494261 -10.843305 5.9822006 0
-8.8700542 -10.889503 6.0384779 0
-8.3793249 -10.885793 5.9676933 0
-10.887896 -10.552469 5.8998442 0
-10.522599 -10.562406 5.9210119 0
-10.199409 -10.561372 5.9551487 0
-9.8400993 -10.556995 5.9099073 0
-9.4228735 -10.547215 5.9356699 0
-9.1429367 -10.58139 5.902308 0
-8.3247862 -10.701505 5.817977 0
-11.065269 -10.172337 5.8540144 0
-10.880574 -10.208377 5.938416 0
-10.508512 -10.207692 5.9502034 0
-10.206119 -10.235955 6.0047121 0
-9.8352718 -10.228195 5.8996081 0
-9.4940243 -10.276387 5.8695316 0
-9.1373835 -10.232908 5.8647304 0
-8.7743454 -10.151123 5.9691329 0
-7.9839563 -10.152355 5.8675375 0
-11.075764 -9.9293375 5.8517389 0
-10.884808 -9.8736525 5.9560566 0
-10.50871 -9.9016438 6.0271673 0
-10.271145 -9.8958082 6.0541883 0
-9.8122902 -9.861331 5.8650818 0
-9.5740805 -9.8226318 5.8412304 0
-9.0696449 -9.8382721 5.8661275 0
-8.7875481 -9.8320379 5.9012947 0
-8.1051264 -9.9881001 5.7587595 0
-11.150517 -9.4644556 5.9261131 0
-10.889309 -9.5176859 6.033432 0
-10.562023 -9.5684729 6.0601411 0
-10.342377 -9.5125465 6.0535407 0
-9.7924938 -9.5611439 5.9222436 0
-9.5193539 -9.539669 5.9730721 0
-9.0715179 -9.5232496 5.8825874 0
-8.8774719 -9.469779 5.8744826 0
-7.8202257 -9.3614807 5.8584394 0
-11.119924 -9.2336397 5.8821278 0
-10.878568 -9.2124872 6.0254383 0
-10.41759 -9.2739115 6.0653601 0
-9.799469 -9.1518698 5.8706541 0
-9.5840168 -9.2173166 6.0011497 0
-9.0770655 -9.159771 5.8303609 0
-8.7788734 -9.1531038 5.8898931 0
-8.5789604 -9.0495129 5.8097191 0
-7.8499904 -9.3032274 5.7638006 0
-9.7392349 -8.8387108 5.9226589 0
-9.6138372 -8.7359524 5.9177985 0
-9.0599651 -8.8537598 5.8797073 0
-8.7713642 -8.817234 5.9323039 0
-8.5457058 -8.7769566 5.9176526 0
-8.0407887 -8.7127676 5.773427 0
-7.7722149 -8.6954594 5.7844634 0
-11.284303 -8.5294895 6.0824347 0
-9.7491703 -8.5484095 5.9579153 0
-9.6102018 -8.4549322 5.9325542 0
-8.997324 -8.4736404 5.8276381 0
-8.7546673 -8.4681158 5.9258623 0
-8.4643536 -8.4514189 5.939106 0
-8.0160809 -8.4598007 5.8820558 0
-7.7253399 -8.4413557 5.8577638 0
-7.4927149 -8.393651 5.8781962 0
-11.465963 -8.1163712 5.9840178 0
-11.391234 -8.0653191 6.0472965 0
-9.5798721 -8.1376133 5.9784617 0
-9.0916615 -8.0527248 5.864296 0
-8.742691 -8.1475363 5.8990135 0
-8.4069328 -8.1171265 5.9183722 0
-8.0645199 -8.0661631 5.9250984 0
-7.7190428 -8.1434269 5.973012 0
-7.460536 -8.1029663 5.950727 0
-11.464657 -7.7643824 5.9834223 0
-11.385984 -7.7661462 5.9720497 0
-9.4690647 -7.7773476 5.9236221 0
-9.1406879 -7.7719164 5.9625349 0
-8.7928419 -7.8087459 5.8828092 0
-8.417778 -7.7841711 5.9204125 0
-8.0949688 -7.7841463 5.9332199 0
-7.701582 -7.7818069 5.9642181 0
-7.4036341 -7.7502079 5.9630122 0
-7.1477222 -7.6285896 6.0758619 0
-11.514076 -7.3779387 5.9113159 0
-11.292439 -7.4275994 5.9353356 0
-10.992122 -7.4731607 6.0008192 0
-9.3660507 -7.3901925 5.900672 0
-9.0495377 -7.4049058 5.8166156 0
-8.7699356 -7.4274993 5.8964429 0
-8.4264565 -7.4114056 5.9207821 0
-8.0233765 -7.4468627 5.9024982 0
-7.7401075 -7.4296064 5.9985271 0
-7.3707509 -7.4445715 6.0263309 0
-7.1842489 -7.3925071 6.059927 0
-11.378046 -7.1575732 5.8684454 0
-9.3974571 -7.1818752 5.9656076 0
-9.1123981 -7.0661001 5.8795857 0
-8.7345772 -7.0742025 5.8660383 0
-8.3962212 -7.0791693 5.9090819 0
-8.0711966 -7.0583596 5.9197111 0
-7.7671552 -7.0378151 5.9663782 0
-7.2757101 -7.1630049 6.1053991 0
-7.1376595 -7.0763617 6.0660019 0
-9.3284531 -6.7599244 5.8330278 0
-9.1150742 -6.7369828 6.0318727 0
-8.7316465 -6.7298536 5.8571105 0
-8.4133358 -6.6999936 5.9195528 0
-8.0390511 -6.7020111 6.0086946 0
-7.8073816 -6.7201385 5.9638901 0
-7.1024046 -6.8704472 6.072917 0
-9.1031866 -6.494071 6.0806189 0
-8.7275925 -6.3743596 5.8166938 0
-8.3774376 -6.3701272 5.8754454 0
-8.0600071 -6.3620319 5.9688463 0
-7.7969069 -6.3462238 5.9972334 0
-8.7242241 -6.0536141 5.8523364 0
-8.3950214 -6.0239325 5.8728266 0
-8.0939674 -6.0093703 5.8934669 0
-7.7688317 -6.0035267 5.9565725 0
-7.5165806 -5.9303226 5.8420219 0
-8.6583929 -5.6665592 5.9107285 0
-8.413044 -5.660532 5.8966627 0
-8.0559168 -5.6828499 5.8940163 0
-7.7149763 -5.652566 5.9313478 0
-7.4821014 -5.6391625 5.9485378 0
-8.6309662 -5.4376731 5.8860183 0
-8.4205132 -5.3171926 5.8971272 0
-8.08395 -5.3182626 5.8855538 0
-7.7141061 -5.3160858 5.9064865 0
-7.4454527 -5.3209023 5.9217176 0
-7.1670895 -5.2647409 6.0837469 0
-6.529851 -5.3712201 6.0854239 0
-6.3648005 -5.3426132 6.0321074 0
-8.3702269 -4.9733224 5.9031329 0
-8.0524912 -4.9614849 5.8667421 0
-7.7309475 -4.9665561 5.8569002 0
-7.4727926 -4.9533448 5.913372 0
-6.2114511 -4.8672366 5.9402704 0
-6.0487099 -4.8884029 5.9248128 0
-8.3444328 -4.6241832 5.8596649 0
-8.0902252 -4.6082602 5.8977714 0
-7.714674 -4.6246471 5.855711 0
-7.3954973 -4.5975032 5.8692698 0
-7.1619349 -4.5201974 5.9478979 0
-6.2164917 -4.741775 6.0664759 0
-5.9681864 -4.6000719 5.9436245 0
-8.3038282 -4.294395 5.860158 0
-8.0510883 -4.2665963 5.864058 0
-7.688899 -4.2748075 5.9053564 0
-7.3801613 -4.2553425 5.865253 0
-7.1190886 -4.2406282 5.9102497 0
-6.6383743 -4.3449736 6.064517 0
-5.8311481 -4.3641291 5.9653635 0
-5.7285352 -4.2518101 5.9257078 0
-5.3607912 -4.1257329 5.9439726 0
-8.0061007 -3.9709048 5.8432217 0
-7.7110925 -3.9053278 5.9106536 0
-7.3696709 -3.922586 5.8729253 0
-7.0598426 -3.9230213 5.8791318 0
-6.7921233 -3.8402231 5.8991523 0
-5.6127758 -3.909179 6.0190182 0
-5.3487854 -3.9195764 6.0292373 0
-7.9446306 -3.6880369 5.7667418 0
-7.696763 -3.5795603 5.8903441 0
-7.364399 -3.5716259 5.8634195 0
-7.0459471 -3.562747 5.8274846 0
-6.6915865 -3.5860701 5.8802042 0
-6.4729576 -3.5331588 5.9023647 0
-5.5589633 -3.567596 5.9963684 0
-5.3485441 -3.5459828 5.947773 0
-7.6442366 -3.2319138 5.8603382 0
-7.3767285 -3.2119439 5.9267607 0
-7.0449963 -3.2150726 5.8495111 0
-6.700223 -3.2006788 5.8933859 0
-5.5262437 -3.2079172 6.0435028 0
-5.2830153 -3.1905255 5.9693131 0
-5.0935307 -3.1957834 5.9925566 0
-7.6078725 -2.9620719 5.8115382 0
-7.3839636 -2.8810253 5.8945642 0
-7.0097218 -2.893419 5.8465056 0
-6.6801686 -2.8792818 5.8706226 0
-6.3755431 -2.7895172 5.9341784 0
-5.5406504 -2.8200669 6.0419188 0
-5.2609048 -2.8637874 6.0063658 0
-5.0423293 -2.8119795 5.9364071 0
-7.3693657 -2.5848618 5.8500848 0
-7.0093603 -2.5176201 5.8753481 0
-6.7020197 -2.4960167 5.8635778 0
-6.2939391 -2.5186021 5.9357891 0
-6.0830493 -2.4418595 6.0224218 0
-5.6177697 -2.5653849 5.9809999 0
-5.2298799 -2.5293643 5.9894228 0
-4.9827209 -2.5074871 5.9227777 0
-4.4997911 -2.4176071 5.8145819 0
-4.3305302 -2.3408308 5.7720556 0
-7.2462053 -2.2464428 5.7695379 0
-7.0011215 -2.2126775 5.8637371 0
-6.6895938 -2.1703758 5.8502512 0
-6.2705612 -2.1846631 5.8949299 0
-6.0106091 -2.1268632 5.9340081 0
-5.6252818 -2.04441 5.9736786 0
-5.2417655 -2.1801834 5.9327793 0
-4.9583893 -2.1785927 5.8665423 0
-4.6033201 -2.1621349 5.8716674 0
-6.6502047 -1.8192528 5.8508873 0
-6.3438249 -1.8112979 5.8555269 0
-5.9553618 -1.831498 5.9165645 0
-5.6475444 -1.8174449 5.9827976 0
-5.3029408 -1.8468024 5.9061227 0
-4.8988371 -1.8342909 5.8628607 0
-4.6215677 -1.779368 5.8602848 0
-4.384325 -1.7091547 5.9653292 0
-7.0055809 -1.5708867 5.7951612 0
-6.574708 -1.519659 5.8561091 0
-6.3691945 -1.457805 5.8516865 0
-6.0091701 -1.4498409 5.9660196 0
-5.5943685 -1.4951354 5.9113955 0
-5.317616 -1.4458584 5.8627443 0
-4.843854 -1.4692547 5.8939109 0
-4.6091027 -1.4469228 5.8577504 0
-4.2859755 -1.4570632 5.9150019 0
-6.3096128 -1.1626719 5.9430981 0
-5.9633017 -1.1141716 5.908145 0
-5.5758805 -1.1122142 5.9263835 0
-5.2808852 -1.1225945 5.8829393 0
-4.9165368 -1.1096092 5.8897853 0
-4.5618839 -1.1257989 5.9146919 0
-4.2568541 -1.082922 5.8513141 0
-4.0209904 -0.98402822 5.9354353 0
-6.2472157 -0.7777549 5.9442725 0
-5.9922304 -0.77033818 5.8905478 0
-5.6387739 -0.77757204 5.9012341 0
-5.256074 -0.76084197 5.8950148 0
-4.9170046 -0.82391429 5.9325542 0
-4.5570507 -0.79291594 5.9236183 0
-4.2207088 -0.77781367 5.9144855 0
-3.9533923 -0.70698011 5.9682913 0
-6.191546 -0.54784173 5.8032789 0
-5.9693737 -0.42356983 5.829771 0
-5.5802412 -0.40475628 5.8590727 0
-5.2348647 -0.44875586 5.8655071 0
-5.0116525 -0.39323404 5.9060292 0
-4.5091848 -0.52527612 5.9432631 0
-4.1976409 -0.45123819 6.0027699 0
-3.9062493 -0.39986578 5.9918065 0
-3.6682601 -0.29834315 6.0336504 0
-5.8526807 -0.14586911 5.7780066 0
-5.6638093 -0.13158911 5.7881584 0
-5.1420593 -0.11211382 5.9441805 0
-4.9171638 -0.074799642 5.9487991 0
-4.6553903 -0.024546102 5.8660874 0
-4.1451702 -0.13452995 5.9984303 0
-3.8814976 -0.07606034 6.0189438 0
-3.6543915 -0.045424327 6.0317574 0
-4.8453531 0.27464035 5.9711075 0
-4.620214 0.30137369 5.9045291 0
-4.2054529 0.29386511 5.9566855 0
-3.8658864 0.25520217 6.0167847 0
-3.5778203 0.27491894 6.0469885 0
-3.2913103 0.35257986 5.9300451 0
-5.9767599 0.70321131 5.8477697 0
-4.8246288 0.60719848 5.9279928 0
-4.6329904 0.59885025 5.947011 0
-4.1630516 0.6525811 5.8934765 0
-3.8678854 0.65312529 5.9238014 0
-3.5727177 0.62834418 6.0241241 0
-3.1886206 0.67018735 5.9581876 0
-2.6347103 0.66542399 5.8523455 0
-5.9310741 1.0018622 5.9409466 0
-5.7961903 1.1314069 5.9841566 0
-4.7250304 0.90493882 5.9790974 0
-4.1338181 0.94271934 5.8543887 0
-3.8629038 0.99535859 5.9300971 0
-3.6847765 0.83485603 5.9800148 0
-3.1665378 0.94931209 6.053194 0
-2.8806667 1.0267675 5.9496017 0
-2.6259604 0.86551178 6.0051584 0
-5.9058833 1.2589496 6.0518613 0
-4.5292268 0.74575675 5.8612833 0
-4.3467884 0.53134871 5.9332795 0
-4.1941333 0.30248818 5.9434862 0
-4.3450427 -0.56620383 6.0250158 0
-2.8161066 1.3266779 6.0024881 0
-4.129365 1.5981888 5.8140144 0
-4.2721796 0.80299437 5.9034891 0
-3.707037 1.0243013 5.9429154 0
-3.5272617 0.92696655 5.9268818 0
-2.6841307 1.5177929 6.0575132 0
-4.0991569 1.9566978 5.8414044 0
-3.9590425 1.8124071 5.8247681 0
-3.5076535 2.0423324 5.9732194 0
-3.4586678 1.7512554 5.9531612 0
-2.5505905 2.063019 5.9234185 0
-6.1611843 2.5044844 6.0815287 0
-6.0890799 2.4648726 6.0529447 0
-5.6195412 2.4140553 5.8642025 0
-5.0241108 0.3505837 5.7516518 0
-3.5101693 2.3597741 5.9250336 0
-3.2318759 2.3521042 5.9955616 0
-2.9494772 2.5147202 5.9537306 0
-2.3966017 2.3423977 5.9796457 0
-6.2612062 2.6836536 5.8741727 0
-5.6744275 2.6577401 5.8258185 0
-4.6587214 2.7676795 5.8793912 0
-3.7078104 2.5803356 5.8346395 0
-4.4339366 0.2566537 5.7815032 0
-3.519228 1.9073228 5.9069452 0
-3.0387657 1.8264552 5.8324203 0
-4.6176705 2.9632981 5.9185667 0
-3.1284237 2.9904869 5.8343778 0
-3.2270265 2.4650762 5.8190494 0
-4.125278 1.4504663 5.6748033 0
-2.1154499 3.0340073 6.1004267 0
-3.0702505 3.3597212 5.7584753 0
-3.3138919 2.5816147 5.8241153 0
-3.7768719 1.1432505 5.8284678 0
-8.0990391 -5.8177338 5.4081092 0
-3.5889683 0.88742816 5.8471427 0
-1.5753298 3.6056411 5.9462156 0
-3.5959551 0.70061886 5.0216761 0
-2.2446358 3.0770559 5.1305099 0
-2.2593324 3.4712236 5.8391132 0
-2.8899293 1.7143536 5.2137089 0
-1.7345538 3.5796416 5.837749 0
-1.1112299 3.924124 5.9701567 0
-7.2779989 -1.6795543 4.864706 0
-4.1513433 1.589439 5.4730816 0
-2.7293816 3.1198537 5.7393856 0
-2.3856916 3.3101847 5.7878966 0
-1.6385536 3.9324706 5.9028683 0
-1.1155188 4.1434555 5.9122705 0
-0.81275082 4.2081504 5.9009275 0
-2.0628726 4.4924469 5.6591086 0
-1.6072047 4.3557725 5.7964187 0
-1.3773041 4.3786635 5.8320665 0
-1.0857029 4.3909698 5.819705 0
-0.79669023 4.3505783 5.9015985 0
-0.41823101 4.5910025 6.0209799 0
-0.31241417 4.720407 6.0096846 0
-0.097956657 4.8118153 6.0342302 0
0.025568962 5.052177 6.1009207 0
16.486668 7.4631968 -13.065328 0
15.931247 7.613492 -12.872304 0
14.787944 7.5940576 -16.294384 0
18.250816 4.180366 -17.765842 0
20.156731 -0.84448087 -20.509304 0
20.621994 -5.6313567 -23.468227 0
5.2552004 8.7922316 5.959342 0
17.893734 -5.553833 -24.035553 0
18.070084 -4.7265573 -24.082687 0
19.676304 -9.1168423 -25.563255 0
5.2674494 9.0099821 5.9416986 0
-10.183585 -11.520818 6.2171645 0
-9.6880646 -11.506911 6.1284971 0
-9.5395851 -11.571312 6.2002707 0
-9.1681042 -11.472752 6.2801161 0
-10.171605 -11.260663 6.2269053 0
-9.7854538 -11.258366 6.2598548 0
-9.5870647 -11.281757 6.3133683 0
-9.1370602 -11.272902 6.2530975 0
-10.148869 -10.911052 6.276823 0
-9.85007 -10.939553 6.2694626 0
-9.5866222 -10.945457 6.3796983 0
-9.0722885 -10.950245 6.219451 0
-8.3077765 -10.788445 6.1178579 0
-10.774765 -10.484156 6.1503382 0
-10.513868 -10.450735 6.2488527 0
-10.084467 -10.553844 6.2270579 0
-9.9353027 -10.520521 6.1548605 0
-9.1127968 -10.483896 6.2809591 0
-10.889347 -10.18697 6.1889114 0
-10.513926 -10.214925 6.2006226 0
-10.131441 -10.18338 6.2429686 0
-9.9139252 -10.190443 6.2067828 0
-9.4818449 -10.063498 6.450633 0
-9.1012506 -10.266809 6.2765474 0
-8.8094387 -10.065191 6.223979 0
-11.114651 -9.7187471 6.1205206 0
-10.885128 -9.8513126 6.2502379 0
-10.519142 -9.8281631 6.2399673 0
-10.167027 -9.8765936 6.3051815 0
-9.9072151 -9.8699417 6.3134174 0
-9.4313622 -9.8905878 6.3090272 0
-9.0935612 -9.8543854 6.1900282 0
-8.7773952 -9.9228039 6.2492313 0
-11.092678 -9.519454 6.2807474 0
-10.880563 -9.507946 6.2782831 0
-10.543779 -9.5176821 6.2983327 0
-10.234159 -9.5530281 6.3290019 0
-9.8083572 -9.5302191 6.3120489 0
-9.5846786 -9.4517641 6.2017088 0
-9.0601549 -9.5203915 6.220407 0
-8.8663063 -9.4372149 6.1338186 0
-11.111664 -9.1315165 6.3286438 0
-10.886362 -9.1606369 6.3485188 0
-10.571392 -9.2373753 6.301652 0
-10.236673 -9.2824697 6.3686452 0
-9.7598629 -9.1761723 6.2659245 0
-9.5666838 -9.1920319 6.2972131 0
-9.0307178 -9.2018976 6.3166566 0
-8.7695141 -9.0963316 6.2200689 0
-11.159379 -8.8210039 6.283464 0
-10.897324 -8.8310738 6.3271551 0
-10.643686 -8.7921743 6.1855245 0
-9.7802792 -8.8077202 6.2995701 0
-9.6163149 -8.9440708 6.2519102 0
-8.9560738 -8.9664574 6.4052801 0
-8.7318316 -8.797967 6.2338405 0
-8.53298 -8.7101841 6.1979666 0
-11.436247 -8.4486113 6.2334385 0
-11.182598 -8.4496651 6.3308897 0
-10.876703 -8.4773455 6.3160129 0
-10.693251 -8.4628391 6.1910491 0
-9.7552242 -8.4749937 6.344945 0
-9.5744667 -8.4138117 6.300477 0
-8.7393227 -8.4487 6.1928358 0
-8.4891415 -8.4560537 6.1762104 0
-7.9856777 -8.2956753 6.1459951 0
-11.214066 -8.1903477 6.3042059 0
-10.903353 -8.1530638 6.30159 0
-9.7659168 -8.1441193 6.3985076 0
-9.6062508 -8.1043491 6.2819281 0
-9.1854782 -8.0133505 6.1566401 0
-8.7181234 -8.1198254 6.2259374 0
-8.4503641 -8.112092 6.1703782 0
-8.0799627 -8.1011772 6.1718283 0
-7.7578459 -8.0255022 6.1527414 0
-7.4263897 -7.9985213 6.2306972 0
-11.220504 -7.9183617 6.435935 0
-9.6590109 -7.7855816 6.3608999 0
-9.5499001 -7.7508726 6.3360682 0
-9.1920414 -7.8277397 6.1478658 0
-8.6932087 -7.7802887 6.2617078 0
-8.4830704 -7.8471975 6.1490154 0
-8.0533667 -7.7264786 6.2376976 0
-7.7125835 -7.7619319 6.239244 0
-7.3819933 -7.7563987 6.2204671 0
-7.1678634 -7.6452074 6.2510166 0
-11.479904 -7.4100003 6.3657961 0
-9.6525745 -7.5073071 6.4549818 0
-9.5945721 -7.5194311 6.3330393 0
-8.6714611 -7.4907517 6.1333284 0
-8.4899244 -7.3778048 6.2258492 0
-8.0616055 -7.409338 6.2739315 0
-7.7155142 -7.4140806 6.2478323 0
-7.3751726 -7.3989215 6.2851357 0
-7.1312075 -7.3888664 6.3073134 0
-8.3489676 -7.0901599 6.2612033 0
-8.0576849 -7.0608559 6.2294178 0
-7.7291908 -7.0703583 6.2502484 0
-7.3655114 -7.0809646 6.3119583 0
-7.1108847 -7.0492325 6.3247442 0
-9.2643394 -6.695363 6.2003021 0
-8.6017628 -6.6209536 6.1142187 0
-8.3021088 -6.6741862 6.3314033 0
-8.0833168 -6.7228465 6.2669549 0
-7.7834864 -6.7340636 6.2173786 0
-7.3423729 -6.7827306 6.3635311 0
-7.116271 -6.7640944 6.3382778 0
-9.203476 -6.4846001 6.1468401 0
-8.2794685 -6.4718246 6.2917395 0
-8.0408154 -6.3835387 6.2620034 0
-7.7707701 -6.3498836 6.2879782 0
-6.9864426 -6.399219 6.3723207 0
-8.2933149 -5.8447647 6.1214933 0
-8.0113602 -6.0344896 6.2240405 0
-7.7020521 -6.0281634 6.2732673 0
-7.5230522 -5.9063158 6.3314962 0
-6.9019828 -6.0836053 6.3992343 0
-6.7824745 -6.00038 6.4307799 0
-8.0515566 -5.6718192 6.2163053 0
-7.7080402 -5.6675873 6.2825294 0
-7.4211969 -5.6402988 6.3076086 0
-6.6293516 -5.6632552 6.3464088 0
-6.37187 -5.5903921 6.3403883 0
-7.956521 -5.3606076 6.1591573 0
-7.67278 -5.313385 6.2596273 0
-7.3501854 -5.3629751 6.2746162 0
-7.1581597 -5.2260208 6.2457457 0
-6.5587263 -5.2612872 6.3510766 0
-6.3532553 -5.3257265 6.330502 0
-7.6293173 -5.0016303 6.2694192 0
-7.4561734 -4.9557033 6.270359 0
-7.1737623 -5.1199427 6.2745161 0
-6.6631308 -4.9798636 6.4207258 0
-6.2847757 -4.9515529 6.362916 0
-6.1056828 -4.8610244 6.2462935 0
-7.5981588 -4.7408228 6.1602736 0
-7.4406071 -4.7365813 6.2290182 0
-7.0991411 -4.5684681 6.358767 0
-6.7113676 -4.5571456 6.3686476 0
-6.2580853 -4.6075425 6.3774872 0
-6.047255 -4.6103888 6.3519411 0
-7.6738005 -4.1402235 6.1088972 0
-7.3363614 -4.3218079 6.3025179 0
-6.9973888 -4.2989292 6.2707372 0
-6.6287308 -4.3071961 6.3544345 0
-6.3660784 -4.3260283 6.3489094 0
-5.9667773 -4.2589145 6.3887463 0
-5.7045922 -4.1607599 6.2867932 0
-5.3938303 -4.1033478 6.1352186 0
-7.6290841 -4.0001531 6.1232328 0
-6.9171495 -3.9495013 6.108058 0
-6.6893935 -3.8547406 6.2307816 0
-6.1669598 -3.9681282 6.4358664 0
-5.9361844 -3.9246576 6.3805609 0
-5.6974869 -3.8795557 6.3274274 0
-5.3959303 -4.0263472 6.1244383 0
-7.4462366 -3.5966334 6.1432791 0
-6.9566412 -3.5391004 6.2281537 0
-6.7260985 -3.5778208 6.195334 0
-6.2234144 -3.680645 6.4318762 0
-5.8842282 -3.6052547 6.3630919 0
-5.6389666 -3.5651138 6.3038545 0
-5.3688803 -3.4757433 6.2682123 0
-6.9859152 -3.1678486 6.1705909 0
-6.6348782 -3.196902 6.2429619 0
-6.4287386 -3.0783095 6.2640142 0
-5.8289852 -3.3363643 6.3675842 0
-5.6172948 -3.2282457 6.2498574 0
-5.3245583 -3.2324007 6.1910906 0
-5.0908699 -3.1784441 6.3894587 0
-7.2169104 -2.7447453 6.1632185 0
-7.1067944 -2.8425233 6.1495371 0
-6.6468668 -2.945004 6.172596 0
-6.3966808 -2.8258734 6.1931329 0
-5.9258022 -2.9787524 6.3260932 0
-5.5433092 -2.918489 6.2212057 0
-5.3840003 -2.8729458 6.1495233 0
-5.0155501 -2.8559241 6.1379271 0
-7.3056793 -2.5901294 6.1563559 0
-7.0635419 -2.5125473 6.1686764 0
-6.264184 -2.5405064 6.1979904 0
-6.1077147 -2.3947754 6.1722193 0
-5.570828 -2.4904726 6.1526709 0
-5.3698788 -2.5425515 6.1996818 0
-4.8739824 -2.4335113 6.3019867 0
-6.8036861 -2.1518874 6.1435714 0
-6.2361937 -2.2244577 6.1800733 0
-6.0105395 -2.1433218 6.2021437 0
-5.5639563 -2.1033897 6.2538271 0
-5.3111715 -2.126287 6.2055254 0
-5.9185548 -1.8110788 6.2052174 0
-5.6219416 -1.8244696 6.2191997 0
-5.3572154 -1.8405925 6.2982059 0
-4.9003162 -1.7819514 6.2762961 0
-4.4667501 -1.8455955 6.1542616 0
-4.3169498 -1.761278 6.2370915 0
-6.5181704 -1.5847055 6.1206617 0
-5.8741379 -1.5236747 6.1896539 0
-5.6313677 -1.4861255 6.2045069 0
-5.3056469 -1.4990896 6.2741795 0
-4.8274603 -1.5044713 6.1467333 0
-4.6653399 -1.3430024 6.1984968 0
-4.2371502 -1.6158835 6.1077757 0
-5.602963 -1.1620027 6.2032738 0
-5.3538284 -1.116315 6.168972 0
-4.9757524 -1.1003653 6.2258358 0
-4.6009469 -1.0924984 6.2335229 0
-4.001811 -1.0570362 6.3549247 0
-5.5465302 -0.79909694 6.1931777 0
-5.3689613 -0.75441861 6.2106524 0
-4.8353529 -0.85388243 6.2698627 0
-4.5809584 -0.81045079 6.2469373 0
-4.2818542 -0.6950112 6.2457566 0
-3.8698809 -0.70623076 6.2482634 0
-5.2505198 -0.429883 6.1689911 0
-5.0378575 -0.4652884 6.1485648 0
-4.6050711 -0.37225613 6.1295462 0
-4.1870708 -0.40756214 6.2087774 0
-3.8381846 -0.41192132 6.1937971 0
-3.6283975 -0.35182473 6.3277259 0
-5.1992865 -0.13141274 6.1143012 0
-4.9365902 -0.0054118484 6.1328249 0
-4.1197987 -0.064956173 6.2383466 0
-3.8839674 -0.05106926 6.1833725 0
-3.5671532 -0.036778241 6.2401462 0
-5.0459585 -0.35951102 6.1739507 0
-5.8097482 -2.7003219 6.2072859 0
-4.2109084 0.25795156 6.2671285 0
-4.0434189 -0.0081574768 6.2379808 0
-3.8514314 -0.1295099 6.2182231 0
-3.5566092 -0.028345317 6.2759852 0
-4.76299 0.51917279 6.1234579 0
-10.274949 -8.1691904 6.3910685 0
-4.1831355 0.62862241 6.2193322 0
-4.0099263 0.18524125 6.1804547 0
-4.0041485 -0.11428268 6.2361488 0
-3.2361333 0.66159678 6.2861552 0
-6.0083857 0.9184556 6.1584845 0
-4.1101708 0.82557678 6.2036753 0
-3.8587041 0.94346726 6.2634573 0
-3.4964523 0.96929371 6.2182465 0
-3.1841578 0.99165308 6.2666211 0
-2.9223757 1.055364 6.2596164 0
-2.6264033 1.0272048 6.20186 0
-5.9362392 1.3924963 6.2111859 0
-3.5605898 1.1316048 6.2171822 0
-3.4460235 0.89408588 6.276751 0
-3.3183355 0.75159502 6.2921057 0
-2.6044703 1.4892328 6.3594999 0
-5.8908663 1.6554338 6.2898908 0
-3.7431371 1.6023433 6.1317625 0
-3.5265203 1.7068365 6.2257171 0
-3.5178859 1.0742078 6.2743173 0
-3.2142215 1.0246607 6.299243 0
-2.5986881 1.6793176 6.2719407 0
-6.0527635 2.0661607 6.4119983 0
-5.6083679 -0.93994868 5.6111107 0
-3.5868342 1.8594948 6.0581131 0
-3.1877527 1.9538609 6.2059526 0
-2.8283288 2.0133662 6.3673429 0
-2.703994 1.9583107 6.3142118 0
-6.1955018 2.4089067 6.2596779 0
-6.1114039 2.3121357 6.3574333 0
-4.6931305 2.5599921 6.1160345 0
-7.1949968 -2.5204685 5.6008873 0
-3.4539559 2.2536447 6.180892 0
-4.3563142 0.29254344 6.0299268 0
-2.8451962 2.3764429 6.3226004 0
-2.4887958 2.3828106 6.3435531 0
-4.6922207 2.8322713 6.1116991 0
-9.1049709 -8.9886713 5.5586596 0
-7.1944132 -6.0984359 5.7408113 0
-3.3165154 1.64098 6.1718874 0
-3.0607524 1.56936 6.1036673 0
-2.1354425 2.8108273 6.4004612 0
-4.6438503 3.0482192 6.3131914 0
-2.7668006 3.0255406 6.2061787 0
-2.8931746 2.7291305 6.1097574 0
-2.4308124 2.7787957 6.3341708 0
-1.8935499 3.16976 6.3283248 0
-2.6793699 3.2833989 6.1126795 0
-2.5356076 3.2538402 6.2072587 0
-2.9128637 2.2234027 6.2119665 0
-2.7385645 2.0210176 6.183259 0
-1.5731254 3.5679252 6.2275133 0
-1.6150804 3.1904197 5.5556054 0
-1.6354699 3.7214334 6.1928415 0
-1.5136907 3.8961284 6.1806908 0
-1.1852629 3.8871949 6.2350926 0
-2.1683104 4.081811 6.205658 0
-1.7332973 4.0011401 6.1720142 0
-1.4329855 4.0097561 6.1998277 0
-1.1277502 4.0780158 6.2236376 0
-0.0042500496 4.8628964 6.129777 0
0.092909813 5.0504265 6.1392775 0
16.330532 7.4118643 -12.912206 0
16.88382 7.2073302 -12.925244 0
16.887257 7.5191903 -12.911765 0
18.757393 5.2917852 -16.928219 0
18.058964 -3.0880558 -22.86071 0
18.938637 -5.4119077 -23.822182 0
19.694622 -7.2798481 -23.951336 0
18.952171 -7.476737 -24.448624 0
5.2188692 8.5548363 6.4084959 0
19.444584 -9.8929081 -24.581379 0
19.416161 -8.6089888 -25.386463 0
18.95697 -7.8837614 -25.353233 0
5.2765026 9.0385132 6.3180585 0
5.4915905 9.1434593 6.282567 0
-10.063086 -11.300512 6.5809793 0
-9.9535456 -11.123732 6.5828009 0
-9.0970545 -11.187432 6.4576368 0
-9.8726807 -10.882804 6.643075 0
-9.6032314 -10.747089 6.5193796 0
-10.18215 -10.473421 6.5475984 0
-9.7053461 -10.558795 6.7443862 0
-9.5917282 -10.555502 6.6626263 0
-10.139191 -10.235318 6.6616011 0
-9.6609325 -10.248511 6.7659149 0
-9.5190725 -10.184081 6.5910826 0
-9.0374432 -10.189217 6.6259184 0
-10.970593 -9.8705864 6.6590309 0
-10.095898 -9.805047 6.5951362 0
-9.9716368 -9.7427082 6.4832568 0
-9.5405693 -9.8723803 6.6341972 0
-11.070479 -9.4936628 6.6542449 0
-10.953503 -9.5226898 6.6532564 0
-10.486268 -9.4930439 6.6324072 0
-10.155617 -9.4978123 6.5730753 0
-9.8828716 -9.4829111 6.5606861 0
-9.5622873 -9.4647655 6.5863466 0
-11.107038 -9.2269163 6.5858078 0
-10.886677 -9.1237516 6.5873656 0
-10.543427 -9.1536407 6.5824075 0
-10.149758 -9.2017889 6.6721001 0
-9.8676662 -9.1847105 6.6416059 0
-9.5551968 -9.2355433 6.6532183 0
-8.8322306 -9.0280857 6.5227365 0
-11.089487 -8.8018312 6.6349235 0
-10.863579 -8.8115644 6.5471778 0
-10.559875 -8.8617315 6.6911087 0
-10.094551 -8.8892946 6.7843981 0
-9.8824854 -8.8169956 6.6758943 0
-8.8050976 -8.8861828 6.5421162 0
-11.118514 -8.4386387 6.5300651 0
-10.879162 -8.4841347 6.5938873 0
-10.576565 -8.4616537 6.6933985 0
-10.307736 -8.3889112 6.7425032 0
-9.8266678 -8.4550037 6.5892687 0
-9.5114727 -8.3141928 6.5150838 0
-7.4416385 -8.3684139 6.5497022 0
-11.10208 -8.0877829 6.6020403 0
-10.870695 -8.1286802 6.665144 0
-10.589962 -8.2022638 6.6577163 0
-10.231278 -8.1336164 6.7141981 0
-9.8318653 -8.1113806 6.5960021 0
-9.5183964 -8.0906048 6.6495285 0
-9.2608643 -8.0336046 6.7182236 0
-7.3755713 -8.1341515 6.5198832 0
-10.994938 -7.859611 6.5532374 0
-10.011996 -7.7510223 6.7429581 0
-9.8213367 -7.7739415 6.613338 0
-9.5699902 -7.7524319 6.6557736 0
-9.261302 -7.8792305 6.7134199 0
-8.4094028 -7.8970947 6.4863386 0
-8.0329361 -7.6835465 6.4780798 0
-7.8039351 -7.7110934 6.5179386 0
-7.2750244 -7.9024758 6.5022025 0
-7.163147 -7.7194424 6.5860538 0
-11.434039 -7.464747 6.6129694 0
-11.342122 -7.4744306 6.648458 0
-10.010045 -7.4340987 6.6875463 0
-9.8112383 -7.4450941 6.6861687 0
-9.5672255 -7.4599838 6.6504955 0
-8.5622969 -7.4355717 6.4874601 0
-7.9804888 -7.4878197 6.5154586 0
-7.8215475 -7.5334129 6.4919844 0
-7.4723454 -7.2996125 6.6155806 0
-7.0799603 -7.3830338 6.5615005 0
-10.06486 -6.9180756 6.7993727 0
-9.8518763 -7.0720859 6.7379999 0
-9.5339546 -7.0489678 6.6096787 0
-8.0707006 -6.9877291 6.5427561 0
-7.6766462 -7.0974007 6.4917622 0
-7.3915501 -7.0254173 6.5826321 0
-7.0471077 -7.0777216 6.540432 0
-10.063586 -6.8399973 6.8058157 0
-9.8941355 -6.8243546 6.787899 0
-9.4901323 -6.7458057 6.6704116 0
-7.7034779 -6.6441817 6.5478239 0
-7.3475289 -6.7220149 6.6193852 0
-7.0468645 -6.6858001 6.5711231 0
-6.8297119 -6.6744757 6.7817373 0
-8.0733318 -6.2975326 6.5458364 0
-7.6908274 -6.4003882 6.5245352 0
-7.2741475 -6.4052601 6.671916 0
-7.0401716 -6.3610888 6.6222286 0
-6.8056903 -6.3443794 6.6224356 0
-7.993 -6.0326319 6.4875708 0
-7.6250496 -5.9596958 6.5806727 0
-7.3158817 -6.0321803 6.6979332 0
-6.9782238 -6.0483551 6.7029691 0
-6.7651706 -5.9743571 6.6652913 0
-7.9634218 -5.686779 6.4917984 0
-7.6968565 -5.7032762 6.5618157 0
-7.3287525 -5.6359024 6.6156807 0
-6.9636774 -5.6838918 6.7383642 0
-6.7039347 -5.6539083 6.6819706 0
-6.4620132 -5.5811033 6.5829725 0
-7.634532 -5.408639 6.636178 0
-7.3276119 -5.3692584 6.5867524 0
-7.0464087 -5.334209 6.6707864 0
-6.6598835 -5.3243508 6.6917558 0
-6.4061232 -5.2830157 6.6619601 0
-7.5641384 -5.1240034 6.4838209 0
-7.4218903 -4.9192224 6.604414 0
-6.9661717 -4.9486632 6.6185799 0
-6.6425319 -4.9454837 6.6680241 0
-6.3536949 -4.9577208 6.635819 0
-6.0993323 -4.8788476 6.6015563 0
-7.2540836 -4.6898985 6.5322924 0
-6.9680376 -4.630199 6.5894938 0
-6.6771088 -4.5966249 6.5981016 0
-6.3317885 -4.6194835 6.6069117 0
-6.0172243 -4.5603781 6.5748529 0
-7.3531446 -4.4161911 6.5008955 0
-6.9863148 -4.359138 6.5117998 0
-6.6950812 -4.2611613 6.5821199 0
-6.2774973 -4.2885413 6.5735393 0
-5.9901862 -4.2619815 6.5536919 0
-5.7193351 -4.1746783 6.5825453 0
-6.6804357 -3.8980806 6.6174879 0
-6.2213812 -3.953407 6.6166959 0
-5.9908528 -3.9247491 6.5472302 0
-5.6373105 -3.9294541 6.5854263 0
-6.6000109 -3.6420839 6.6427712 0
-6.3520064 -3.5458255 6.6700373 0
-5.8741865 -3.5889986 6.5626955 0
-5.6184464 -3.6016805 6.5316181 0
-5.3764424 -3.6027384 6.5317526 0
-5.7591944 -3.2695351 6.5466585 0
-5.2452908 -3.2871051 6.4598799 0
-5.0901709 -3.0556993 6.457778 0
-5.5419712 -2.9723504 6.5442991 0
-5.1225801 -2.8525243 6.5183973 0
-5.0559754 -2.8511558 6.5787382 0
-4.8123264 -2.5366547 6.5802779 0
-5.5611024 -2.1727641 6.5656056 0
-5.4857125 -1.6871855 6.5192366 0
-5.3447523 -1.7283578 6.6515851 0
-4.5088205 -1.9160401 6.7097082 0
-4.3933206 -1.9207822 6.6509104 0
-5.2909303 -1.5259986 6.6520047 0
-4.8028908 -0.9958936 6.4677191 0
-4.6833301 -0.99708354 6.5131502 0
-3.9293602 -1.0752 6.6560507 0
-4.5699654 -0.81203818 6.5180817 0
-4.3547502 -0.7154125 6.5808835 0
-3.6900306 -0.6506182 6.4906797 0
-4.1726804 -0.47127807 6.5890512 0
-3.6223636 -0.46941382 6.5356412 0
-5.3969998 -2.2619348 6.5403299 0
-3.4290426 -0.087438762 6.5151482 0
-3.3067799 -0.031664222 6.6112204 0
-4.1152105 0.18917885 6.5052404 0
-3.8654854 0.18225232 6.4940023 0
-3.8257964 -0.3887361 6.4183025 0
-3.2502437 0.29832599 6.5611429 0
-3.7031908 0.62197483 6.6141577 0
-6.1675568 -3.2677901 6.4356179 0
-4.8450007 -2.4497328 6.4341402 0
-3.4991398 1.0917169 6.5377893 0
-3.3060808 1.1043168 6.4932661 0
-2.8446407 1.0623939 6.4645681 0
-5.9854703 1.3418618 6.486968 0
-3.4688537 1.3933865 6.6385179 0
-3.1739652 1.335953 6.6073608 0
-3.5180151 0.39056817 6.4606524 0
-5.9066811 1.6924512 6.5334682 0
-3.3904295 1.5786229 6.5234404 0
-3.0553751 1.6320876 6.7419786 0
-3.4460857 0.46469215 6.3348699 0
-2.5903177 1.7216111 6.6703472 0
-5.8988762 2.0370488 6.5878992 0
-3.3156605 1.6793345 6.2714219 0
-3.1571958 1.3064444 6.435637 0
-6.2141252 2.2752621 6.4976053 0
-5.8862944 2.2995074 6.6664066 0
-3.0514197 2.3782494 6.5959578 0
-3.5570319 1.0446005 6.368576 0
-3.5191813 0.98740923 6.3796325 0
-3.8846879 0.035358578 6.4654126 0
-2.965138 2.2353461 6.5131464 0
-3.1596723 1.472252 6.3827868 0
-2.7482371 1.6677064 6.4172635 0
-2.7024002 3.0751979 6.5134268 0
-2.5813773 2.9188211 6.4491801 0
-2.6796975 2.5341501 6.3783755 0
-1.9262407 3.0722597 6.6479144 0
-2.3895493 3.3386438 6.5440083 0
-2.444346 2.9240985 6.4906187 0
-2.218111 2.9567735 6.5018787 0
-2.0055852 3.6573496 6.5021944 0
-1.7615421 3.6890054 6.5587759 0
-1.4382508 3.8057511 6.5554361 0
-1.2505293 3.916662 6.5217581 0
-1.2512312 3.9938524 6.5151777 0
-1.1820707 3.9942696 6.4647818 0
4.6594095 8.0231705 6.6207361 0
4.7197704 8.102602 6.7675962 0
14.036315 7.3970804 -16.868011 0
4.6861696 8.2292948 6.6407576 0
4.7140293 8.273778 6.7103376 0
5.1827497 8.4569416 6.6288557 0
5.2337465 8.7157545 6.5923171 0
5.2867489 9.0828485 6.5039172 0
5.4821529 9.0061626 6.4883795 0
-9.8302393 -10.561826 6.9754982 0
-10.370573 -10.141505 6.9006901 0
-10.280239 -10.129536 6.8427086 0
-9.7387676 -10.19652 6.9455833 0
-11.025358 -9.8044739 6.8467445 0
-10.391821 -9.8233366 7.0954313 0
-10.249611 -9.8782167 6.978116 0
-9.7242861 -9.8576365 6.9581661 0
-11.018947 -9.344821 6.9109602 0
-10.377281 -9.5469618 7.0733299 0
-10.188424 -9.533865 6.9669724 0
-9.7167206 -9.527647 7.0113573 0
-9.5775261 -9.481741 6.8750625 0
-11.100702 -9.261363 6.856452 0
-11.001372 -9.1516476 7.0006661 0
-10.435823 -9.1201448 6.9839053 0
-10.160211 -9.1079445 7.0102177 0
-9.818182 -9.1260118 6.9475608 0
-9.5705948 -9.1679039 6.9986911 0
-11.143057 -8.9317513 7.0233793 0
-10.945324 -8.80511 6.9745407 0
-10.485233 -8.7961588 6.9769688 0
-10.153327 -8.8160353 6.9821005 0
-9.8957062 -8.8108158 6.9438214 0
-9.5994682 -8.92274 7.0924664 0
-11.095757 -8.441576 6.9278975 0
-10.863185 -8.4490709 6.981657 0
-10.501558 -8.4665546 6.9735088 0
-10.164876 -8.4685116 6.9980469 0
-9.890398 -8.4746485 6.9904943 0
-9.6320438 -8.4168663 6.9984579 0
-11.108294 -8.1319265 6.8951225 0
-10.867141 -8.1283579 6.9484596 0
-10.514328 -8.1420918 6.9817529 0
-10.204967 -8.1298904 7.025816 0
-9.8605938 -8.1113443 7.0066228 0
-9.6430321 -8.0959654 6.8444004 0
-11.116089 -7.7185621 6.969799 0
-10.881772 -7.7843065 6.9990664 0
-10.577147 -7.8093147 7.0439806 0
-10.176308 -7.8053579 7.0918384 0
-9.8395309 -7.7831054 6.9732323 0
-9.6374292 -7.727922 6.8381581 0
-7.8122044 -7.6361074 6.8069372 0
-7.1467562 -7.7771149 6.9061995 0
-11.134278 -7.4343095 7.0015612 0
-10.887794 -7.415215 6.9845514 0
-10.663878 -7.4654427 7.0081177 0
-10.08901 -7.4675384 6.9866972 0
-9.8054428 -7.4032874 7.002141 0
-9.581459 -7.403996 6.9391527 0
-11.102274 -7.1990204 7.1267691 0
-10.935369 -7.1144161 7.0263309 0
-10.09293 -6.9452209 6.8687468 0
-9.7972126 -7.0772686 7.0160127 0
-9.5582504 -7.0799441 6.9907541 0
-7.4481974 -6.9428205 6.839139 0
-11.234043 -6.5785141 6.9304161 0
-10.936905 -6.7379556 7.1425638 0
-10.124088 -6.6847291 6.910985 0
-9.8063564 -6.7215433 7.0101223 0
-9.5320616 -6.7229981 7.0668879 0
-7.396172 -6.7368951 6.882988 0
-6.8895483 -6.8131447 6.8226194 0
-11.142741 -6.3607345 7.0156889 0
-10.936895 -6.3561187 7.0485306 0
-10.124409 -6.4782395 6.9045181 0
-9.7218056 -6.4257751 7.0667181 0
-9.5769463 -6.4025531 7.1065359 0
-7.7087941 -6.3409252 7.0175085 0
-7.2801104 -6.325963 6.836638 0
-7.0724258 -6.3206344 6.8261642 0
-6.8130007 -6.2954354 6.8934174 0
-11.177263 -6.0451026 6.9261227 0
-10.954292 -6.0000339 6.9991283 0
-9.543458 -6.0136051 7.1537161 0
-7.6633682 -6.0265136 7.0058317 0
-7.3111663 -6.0075893 6.8930459 0
-7.0817995 -5.9695396 6.8879242 0
-6.7777295 -5.9899931 6.9068227 0
-11.226389 -5.7352996 6.9235106 0
-7.666955 -5.6998844 7.039566 0
-7.3446884 -5.6743112 6.9614239 0
-7.0251188 -5.6573324 6.916687 0
-6.7114277 -5.6128778 6.8525696 0
-7.3081799 -5.3751111 6.896503 0
-7.0272112 -5.3367538 6.9264994 0
-6.7428303 -5.2771211 6.8853536 0
-6.4254827 -5.2897105 6.9239445 0
-7.3555946 -5.0298486 6.9763851 0
-6.9261079 -4.9723544 6.9125543 0
-6.7059383 -4.9987564 6.8873396 0
-6.3161192 -4.9867191 6.882071 0
-6.1296844 -4.9456015 6.8133802 0
-7.0436745 -4.7300577 6.8195372 0
-6.5885496 -4.676929 6.9103289 0
-6.4796338 -4.6274905 6.8669701 0
-5.988462 -4.6546397 6.9081078 0
-5.8224268 -4.4064617 6.8168783 0
-5.7312255 -4.2882829 6.8989658 0
-6.5563622 -3.7934012 6.8478193 0
-5.8895707 -3.6210146 6.9023695 0
-4.7446499 -2.6514349 6.9983168 0
-5.3474913 -2.0421972 6.991313 0
-4.5485106 -2.0150652 6.9015799 0
-5.3446903 -1.9661356 6.9739561 0
-5.2991066 -1.4660693 6.8637505 0
-4.5038157 -0.81135917 6.8968182 0
-3.7685699 0.61158693 6.8616781 0
-6.091126 -3.8830473 6.4994149 0
-3.0700636 1.6925659 6.8582716 0
-2.9542181 1.785134 6.8881369 0
-2.5941095 1.5832567 6.8073606 0
-2.8727417 2.0348251 6.9240713 0
-2.7699502 2.3791234 6.9460378 0
-2.4505827 2.4660838 7.0027137 0
-2.2532091 2.3788028 6.9140348 0
-2.4360042 2.5934927 7.0946121 0
-2.1883981 2.6961055 6.9516015 0
-2.0238905 3.1402247 6.8133802 0
-1.5711317 3.6061742 6.9131956 0
4.6578894 7.8674011 6.8382959 0
4.7459497 8.1269827 6.9179564 0
4.8833036 8.2498178 6.9813919 0
5.0823689 8.3602362 7.1142845 0
5.2548027 8.6947622 7.0519371 0
-9.8909454 -10.440245 7.2701273 0
-9.8736782 -10.239082 7.3429146 0
-9.8106623 -9.7145185 7.2031355 0
-11.052421 -9.3603897 7.2938566 0
-10.943675 -9.3634415 7.2669077 0
-10.421534 -9.4934921 7.1996861 0
-10.344847 -9.4539089 7.2064962 0
-9.7922039 -9.4793978 7.2160974 0
-11.076921 -9.2926998 7.2216215 0
-10.996712 -9.1593447 7.2609806 0
-10.449787 -9.1279736 7.363266 0
-10.216294 -9.1336079 7.2671447 0
-9.8189011 -9.1447449 7.2253442 0
-10.875561 -8.7514515 7.3534193 0
-10.485742 -8.8307171 7.3548288 0
-10.135252 -8.7641439 7.2552223 0
-9.8117285 -8.8806877 7.2841272 0
-9.6037169 -8.7850008 7.3011389 0
-10.886384 -8.454093 7.3955584 0
-10.493977 -8.4815645 7.3916559 0
-10.154921 -8.4589128 7.2889452 0
-9.8473816 -8.4670935 7.2237692 0
-9.6224318 -8.578475 7.1800375 0
-10.937487 -8.0699444 7.2763157 0
-10.459623 -8.1007986 7.3157406 0
-10.186214 -8.1158533 7.3045335 0
-9.8888531 -8.0882416 7.269177 0
-9.5573606 -7.9554195 7.3838797 0
-10.861099 -7.7352495 7.3118153 0
-10.502298 -7.7408218 7.3382416 0
-10.17174 -7.7809834 7.3602152 0
-9.8839998 -7.7549343 7.3188601 0
-9.5039043 -7.8579559 7.3483162 0
-8.4594774 -7.7038903 7.4276137 0
-11.140777 -7.3844666 7.309866 0
-10.865421 -7.416779 7.3395338 0
-10.499266 -7.4252996 7.3745589 0
-10.208559 -7.4512281 7.375989 0
-9.8708153 -7.4452887 7.3394847 0
-9.5305424 -7.3714833 7.3855343 0
-8.5326366 -7.5017843 7.3323584 0
-11.102083 -7.044857 7.2940054 0
-10.887461 -7.0713782 7.3640704 0
-10.552172 -7.1136231 7.4370289 0
-10.16853 -7.090065 7.378531 0
-9.8443298 -7.0410194 7.2834301 0
-9.5880604 -7.0350618 7.3178997 0
-11.108795 -6.6911368 7.2925043 0
-10.968169 -6.760181 7.3720989 0
-10.660365 -6.8853712 7.4699774 0
-10.064808 -6.7014451 7.2652183 0
-9.791954 -6.7129421 7.2755256 0
-9.5797768 -6.7495375 7.2622032 0
-8.0873518 -6.6589818 7.4107351 0
-7.825285 -6.5811653 7.4257383 0
-11.091779 -6.4802489 7.2107916 0
-10.952599 -6.3634033 7.345892 0
-10.08713 -6.3820128 7.2980909 0
-9.7928905 -6.3585076 7.3497162 0
-9.5269299 -6.3442264 7.3150644 0
-7.9942722 -6.4225984 7.3660736 0
-7.8308468 -6.4524493 7.2855177 0
-6.7048044 -6.2321873 7.4904146 0
-10.848527 -6.0626469 7.4544373 0
-10.158593 -6.0260792 7.2429957 0
-9.7363358 -6.0773711 7.3822269 0
-9.5475864 -6.0350561 7.3208842 0
-7.8473701 -5.992208 7.208703 0
-6.8513708 -5.8943815 7.4650755 0
-6.7284765 -5.9994807 7.3882174 0
-9.7379742 -5.6809907 7.3720055 0
-9.5456076 -5.7518263 7.2646685 0
-7.8036785 -5.7996292 7.2417784 0
-7.2419844 -5.5212526 7.2293196 0
-7.1450949 -5.684176 7.1922169 0
-6.6883841 -5.6683455 7.4451036 0
-6.4640741 -5.5334473 7.1597357 0
-9.7348871 -5.4127884 7.4227991 0
-9.5434914 -5.3659043 7.4395056 0
-7.6113768 -5.2875376 7.3243065 0
-7.3563433 -5.293159 7.2737207 0
-7.0038404 -5.2932515 7.2863226 0
-6.7050867 -5.3594851 7.2810102 0
-9.5885382 -5.1336775 7.478797 0
-7.5891848 -5.0708599 7.3515348 0
-7.2899232 -5.0086212 7.3365288 0
-4.7334032 -3.2492075 7.3803291 0
-4.8359652 -2.7587557 7.3232918 0
-4.7445107 -2.9072289 7.4493303 0
-4.8934708 -2.647305 7.2159452 0
-4.5006771 -2.1015153 7.3760395 0
-4.3745837 -2.0705569 7.4405308 0
-4.4748707 -1.9741293 7.3858366 0
-4.3480306 -1.952196 7.345005 0
-2.3634367 2.4495749 7.4325981 0
-2.2258406 2.4619248 7.4539108 0
-2.5484009 2.6545095 7.2960291 0
-2.1827917 2.6127174 7.3508387 0
4.9339342 6.988142 7.3532887 0
4.9853792 8.0348616 7.4137821 0
5.1396122 8.3749819 7.2869983 0
5.2166767 8.5751925 7.236968 0
-9.955884 -10.196745 7.6265898 0
-9.9592447 -9.9127226 7.6739578 0
-10.042181 -9.4954786 7.7819533 0
-9.9559155 -9.5154819 7.6352897 0
-10.039502 -9.1983299 7.7500725 0
-9.955534 -9.2134552 7.6340103 0
-10.775126 -8.8636332 7.6601524 0
-10.168194 -8.7263393 7.688633 0
-9.8280182 -8.7672272 7.6591973 0
-9.6108398 -8.6915674 7.5659475 0
-10.828492 -8.4289379 7.7470584 0
-10.622046 -8.3198395 7.5373144 0
-9.6834764 -8.4662313 7.7342577 0
-9.5859604 -8.4457521 7.7225933 0
-10.866302 -8.099205 7.7394352 0
-10.567868 -8.080945 7.5481176 0
-10.218414 -8.0514822 7.5426369 0
-9.6582584 -8.1856489 7.691247 0
-9.5851021 -8.1825619 7.7152605 0
-10.883719 -7.7654376 7.6740913 0
-10.499809 -7.7684059 7.6107349 0
-10.224087 -7.7554164 7.6331177 0
-8.360445 -7.6358695 7.7307501 0
-10.846798 -7.4023008 7.6292176 0
-10.514668 -7.4016876 7.6287699 0
-10.214767 -7.3974228 7.6588278 0
-9.9127731 -7.3850622 7.6218977 0
-9.4504185 -7.343811 7.6923466 0
-8.910574 -7.3860717 7.8254843 0
-8.4737606 -7.465827 7.5878758 0
-11.111536 -7.0806065 7.7157946 0
-10.881497 -7.0546894 7.6454215 0
-10.503544 -7.0547762 7.6768198 0
-10.182549 -7.0692248 7.7166414 0
-9.8827972 -7.074934 7.7061043 0
-9.4670677 -7.1197276 7.6843529 0
-9.1697731 -7.0513549 7.8325772 0
-8.0864573 -6.9925365 7.6864176 0
-7.861681 -6.929822 7.7443762 0
-6.8956013 -6.9970355 7.7961311 0
-6.8083477 -6.9305496 7.701396 0
-11.103185 -6.8022814 7.5476751 0
-10.866583 -6.7000709 7.6829281 0
-10.503546 -6.7343922 7.7189045 0
-10.180324 -6.7229223 7.703661 0
-9.8351612 -6.7061734 7.7427049 0
-9.5172291 -6.7708607 7.6146288 0
-9.1687365 -6.731236 7.8226552 0
