ply
format ascii 1.0
comment PCL generated
element vertex 1234
property float x
property float y
property float z
property uchar red
property uchar green
property uchar blue
element camera 0
property float view_px
property float view_py
property float view_pz
property float x_axisx
property float x_axisy
property float x_axisz
property float y_axisx
property float y_axisy
property float y_axisz
property float z_axisx
property float z_axisy
property float z_axisz
property float focal
property float scalex
property float scaley
property float centerx
property float centery
property int viewportx
property int viewporty
property float k1
property float k2
end_header
-6.8042068 10.917776 -2.2561898 0 0 0
-6.5696011 10.733488 -2.292732 0 0 0
-6.3356256 10.824116 -2.2969995 0 0 0
-5.873867 10.817131 -2.2486787 0 0 0
-6.535655 11.211992 -2.2736406 0 0 0
-6.3359566 11.207815 -2.3571315 0 0 0
-5.8229303 11.138712 -2.2687025 0 0 0
-5.6293449 11.205248 -2.3616643 0 0 0
-6.5182047 11.410734 -2.332211 0 0 0
-6.3510456 11.419994 -2.4132953 0 0 0
-5.8771429 11.511024 -2.3067627 0 0 0
-5.5516968 11.319435 -2.3614717 0 0 0
-6.4555378 12.014114 -2.5539689 0 0 0
-6.1984167 11.911837 -2.2753129 0 0 0
-5.8807669 11.860466 -2.3478796 0 0 0
-5.6568375 11.907017 -2.2399507 0 0 0
-6.4248772 12.034975 -2.4631104 0 0 0
-6.2332258 12.186628 -2.2857804 0 0 0
-5.870759 12.194414 -2.3399348 0 0 0
-5.5417004 12.289747 -2.2405136 0 0 0
-6.4119968 12.659376 -2.2854447 0 0 0
-6.2397547 12.558071 -2.2517908 0 0 0
-5.8487406 12.512941 -2.340662 0 0 0
-5.6151056 12.54693 -2.3497438 0 0 0
-6.5169964 12.859934 -2.252645 0 0 0
-6.2371588 12.829344 -2.2480738 0 0 0
-5.8219843 12.876886 -2.3689959 0 0 0
-5.6308966 12.905163 -2.3845181 0 0 0
-6.5481768 13.247597 -2.2649095 0 0 0
-6.1656656 13.206427 -2.2473741 0 0 0
-5.8156214 13.255629 -2.3086061 0 0 0
-5.5441751 13.255146 -2.3696108 0 0 0
-5.3206959 13.408516 -2.4563966 0 0 0
-6.4481516 13.601227 -2.3066258 0 0 0
-6.2674475 13.715256 -2.3011308 0 0 0
-5.8413506 13.598194 -2.281461 0 0 0
-5.55861 13.595419 -2.2875516 0 0 0
-5.2665367 13.611303 -2.3822515 0 0 0
-6.161747 13.846285 -2.2883105 0 0 0
-5.8038607 13.943851 -2.2862623 0 0 0
-5.6317482 13.907324 -2.2771218 0 0 0
-5.2104101 13.932024 -2.3620901 0 0 0
-6.8090353 14.360413 -2.2844377 0 0 0
-6.7416973 14.181175 -2.2909074 0 0 0
-6.0823536 14.2465 -2.2298172 0 0 0
-5.7894363 14.300659 -2.2809334 0 0 0
-5.6172714 14.301319 -2.2707598 0 0 0
-5.1824684 14.269175 -2.4117646 0 0 0
-6.8074026 14.570143 -2.262536 0 0 0
-5.7448492 14.531855 -2.2676466 0 0 0
-5.5825281 14.568058 -2.2594285 0 0 0
-5.2039013 14.488197 -2.479527 0 0 0
-6.7296562 15.123375 -2.2255311 0 0 0
-5.5564556 14.838055 -2.2357545 0 0 0
-6.4557753 4.5518827 -2.5823851 0 0 0
-7.4204302 -6.5162015 -2.722688 0 0 0
-8.0389299 -13.11376 -2.7894409 0 0 0
-7.93431 -16.871668 -2.6774659 0 0 0
-8.2393703 -18.184025 -2.0488062 0 0 0
-8.8776779 -17.931463 -2.20439 0 0 0
-8.6724129 -17.948803 -2.0206423 0 0 0
-8.4047918 -18.022884 -1.9679674 0 0 0
-7.3903866 -17.747225 -2.196135 0 0 0
-8.8907909 -17.580311 -2.1446111 0 0 0
-8.6911278 -17.542158 -2.1336076 0 0 0
-8.3976364 -17.551699 -2.1188917 0 0 0
-7.5654564 -17.520742 -2.0922861 0 0 0
-7.3103762 -17.56748 -2.1342859 0 0 0
-8.8771868 -17.112122 -2.1161904 0 0 0
-8.705843 -17.254917 -2.1132092 0 0 0
-7.6404076 -17.204794 -2.0301409 0 0 0
-7.2506323 -17.224457 -2.0202384 0 0 0
-8.8547153 -16.831652 -2.2147508 0 0 0
-8.7137127 -16.843748 -2.1127083 0 0 0
-7.8513374 -16.752987 -2.188849 0 0 0
-7.585803 -16.86644 -1.9815748 0 0 0
-7.2295895 -16.856039 -2.0148237 0 0 0
-7.0634165 -16.874857 -1.9758171 0 0 0
-8.8597565 -16.666271 -2.1523118 0 0 0
-8.6921244 -16.52634 -2.1773543 0 0 0
-7.8866158 -16.482086 -2.188292 0 0 0
-7.5142622 -16.582867 -1.9255127 0 0 0
-7.297061 -16.463648 -2.0246322 0 0 0
-7.0682697 -16.518137 -2.0264521 0 0 0
-8.7015219 -16.142439 -2.1236463 0 0 0
-8.3638134 -16.1616 -2.003803 0 0 0
-7.8122759 -16.05699 -2.2057214 0 0 0
-7.4566765 -16.030684 -2.105269 0 0 0
-7.2848549 -16.145618 -2.0488176 0 0 0
-8.6098003 -15.751186 -1.9787399 0 0 0
-8.3580952 -15.842665 -1.9696952 0 0 0
-7.8376169 -15.800539 -2.1441457 0 0 0
-7.781477 -15.950436 -2.1464372 0 0 0
-7.3086243 -15.832443 -2.0547574 0 0 0
-7.0561371 -15.970583 -1.8816932 0 0 0
-8.5776186 -15.467548 -2.0178728 0 0 0
-8.3608475 -15.434849 -2.010695 0 0 0
-7.8503571 -15.339352 -2.2171311 0 0 0
-7.6465168 -15.422113 -2.1189723 0 0 0
-7.2981615 -15.456217 -2.0847154 0 0 0
-8.5971451 -15.120768 -2.0224104 0 0 0
-8.3764668 -15.105251 -1.9674716 0 0 0
-7.9571762 -15.085348 -2.148952 0 0 0
-7.5800629 -15.126877 -2.0035839 0 0 0
-7.28333 -15.105803 -2.0699606 0 0 0
-7.0908566 -15.031296 -2.042273 0 0 0
-8.5528164 -14.745419 -2.0653918 0 0 0
-8.3612738 -14.744457 -2.0488584 0 0 0
-7.9660788 -14.776516 -2.0847278 0 0 0
-7.5527973 -14.804592 -1.9843919 0 0 0
-7.2011108 -14.808828 -2.0016434 0 0 0
-7.0401411 -14.793493 -2.0005517 0 0 0
-8.6168184 -14.380575 -2.0776918 0 0 0
-8.2777958 -14.466547 -2.0021193 0 0 0
-8.0631332 -14.503773 -2.1347418 0 0 0
-7.5295467 -14.369272 -2.0911074 0 0 0
-7.2506342 -14.373095 -2.0255482 0 0 0
-7.0434799 -14.449224 -1.9897163 0 0 0
-8.6699171 -14.06809 -2.1450658 0 0 0
-8.2739973 -14.074125 -2.0356271 0 0 0
-7.9648409 -13.977144 -2.0488501 0 0 0
-7.5600367 -14.091843 -2.1034715 0 0 0
-7.2746763 -14.05238 -2.045191 0 0 0
-8.6568613 -13.680708 -2.1750627 0 0 0
-8.3459911 -13.71105 -1.9694194 0 0 0
-7.9171467 -13.736372 -2.0277202 0 0 0
-7.6176767 -13.627028 -2.1135798 0 0 0
-7.2891273 -13.712561 -2.0351055 0 0 0
-7.0924664 -13.813021 -1.9533714 0 0 0
-8.6212568 -13.453531 -2.0838516 0 0 0
-8.3363199 -13.396532 -1.9099004 0 0 0
-7.9439421 -13.322968 -1.9916474 0 0 0
-7.6264753 -13.366543 -2.0452764 0 0 0
-7.2923174 -13.377563 -1.9970425 0 0 0
-7.0202274 -13.340235 -1.9557518 0 0 0
-8.5224276 -13.007742 -2.008883 0 0 0
-8.3293352 -13.033663 -1.9310474 0 0 0
-7.9440937 -12.97744 -2.0967364 0 0 0
-7.6528006 -12.987835 -2.0439925 0 0 0
-7.1967316 -13.031786 -1.9322323 0 0 0
-7.00912 -13.021915 -1.9815111 0 0 0
-8.7308626 -12.637243 -2.1761587 0 0 0
-8.2972603 -12.690853 -1.9227585 0 0 0
-7.9589643 -12.656368 -2.0830712 0 0 0
-7.6515818 -12.703863 -2.0438359 0 0 0
-7.2538671 -12.659634 -1.9496306 0 0 0
-6.9914408 -12.666807 -2.0098689 0 0 0
-8.6419868 -12.383913 -2.1783853 0 0 0
-8.1802425 -12.291803 -1.9264435 0 0 0
-7.9999819 -12.366661 -1.9928163 0 0 0
-7.682786 -12.311085 -2.0823109 0 0 0
-7.1462955 -12.360836 -1.9356951 0 0 0
-7.0191593 -12.318514 -2.004612 0 0 0
-8.6797876 -12.048328 -2.1472039 0 0 0
-8.1563969 -12.016563 -1.9407753 0 0 0
-8.0684519 -11.977045 -2.0183344 0 0 0
-7.6726971 -11.978325 -2.0916626 0 0 0
-7.2820807 -11.996723 -1.9646459 0 0 0
-8.6068811 -11.602829 -2.0576386 0 0 0
-8.3832445 -11.716993 -2.0345278 0 0 0
-8.0877962 -11.608202 -1.9998916 0 0 0
-7.5325575 -11.521502 -1.9083599 0 0 0
-7.3827553 -11.484842 -2.2213349 0 0 0
-6.9721355 -11.740917 -1.9375519 0 0 0
-8.616374 -11.237921 -2.1484365 0 0 0
-8.4977169 -11.137909 -2.2158723 0 0 0
-8.0591421 -11.258158 -1.9949529 0 0 0
-7.5252762 -11.336527 -2.191237 0 0 0
-7.4393167 -11.322121 -2.1877313 0 0 0
-8.5580168 -10.885838 -2.1419096 0 0 0
-8.2927914 -10.894924 -1.9137176 0 0 0
-8.0416842 -10.916656 -1.9890903 0 0 0
-8.5872421 -10.533531 -2.1146805 0 0 0
-8.2976742 -10.543381 -1.9643797 0 0 0
-8.0375834 -10.5474 -1.9793953 0 0 0
-8.5935564 -10.203402 -2.1182411 0 0 0
-8.3885622 -10.232975 -2.0511618 0 0 0
-7.9664927 -10.192177 -2.0100961 0 0 0
-7.7275295 -10.143972 -1.9968641 0 0 0
-8.5493536 -9.9207592 -2.166641 0 0 0
-8.4073992 -9.8557529 -2.1399295 0 0 0
-7.9289665 -9.8646278 -2.0301607 0 0 0
-7.7194281 -9.9218102 -2.0693748 0 0 0
-6.8772516 -9.8542557 -2.2056184 0 0 0
-8.5542774 -9.5080547 -2.1908579 0 0 0
-8.4144859 -9.425663 -2.1461887 0 0 0
-7.9106455 -9.523037 -2.0296993 0 0 0
-6.9001217 -9.4757462 -2.1398432 0 0 0
-6.7400169 -9.4486542 -2.0855317 0 0 0
-8.5488167 -9.3117142 -2.1614823 0 0 0
-8.3123569 -9.163168 -2.045718 0 0 0
-7.9137297 -9.1524544 -1.9698331 0 0 0
-7.7733212 -9.1513615 -2.1391511 0 0 0
-6.8861656 -9.1734657 -2.0353594 0 0 0
-6.7036171 -9.1820107 -2.1525941 0 0 0
-8.336359 -8.8231621 -2.0714588 0 0 0
-7.9209166 -8.9127312 -1.9334915 0 0 0
-7.7334337 -8.7967548 -2.1205087 0 0 0
-6.807972 -8.7094154 -2.1702867 0 0 0
-6.700984 -8.8221912 -2.0737176 0 0 0
-8.3832531 -8.4514465 -2.1056764 0 0 0
-8.0903873 -8.3107624 -2.2042489 0 0 0
-7.7069683 -8.5028133 -2.1046281 0 0 0
-6.8651762 -8.4657326 -2.1907663 0 0 0
-6.708271 -8.473484 -2.0391202 0 0 0
-8.5229158 -8.1923428 -2.1764588 0 0 0
-8.3624811 -8.1006737 -2.0713334 0 0 0
-7.9939899 -8.085989 -2.0802524 0 0 0
-7.6945829 -8.0233002 -1.9915934 0 0 0
-6.8915081 -8.0692768 -2.1739061 0 0 0
-6.7171497 -8.0298939 -2.1108713 0 0 0
-8.5440559 -7.6058202 -2.1303315 0 0 0
-8.2948198 -7.7707095 -2.0851209 0 0 0
-8.0075626 -7.7561898 -2.0900719 0 0 0
-7.7383423 -7.7614017 -2.0665758 0 0 0
-7.2375755 -7.6327977 -2.1966233 0 0 0
-6.8813124 -7.7107558 -2.1353586 0 0 0
-6.6857529 -7.7750916 -2.031266 0 0 0
-8.5252953 -7.3119597 -2.1378922 0 0 0
-8.2681637 -7.3999476 -2.0260012 0 0 0
-8.0362177 -7.4199529 -2.0493085 0 0 0
-7.7853966 -7.5430446 -2.1549745 0 0 0
-7.2431536 -7.4369922 -2.061687 0 0 0
-6.9399929 -7.3783422 -2.0529191 0 0 0
-6.7042933 -7.4289117 -2.0207338 0 0 0
-8.3000536 -7.0370288 -2.0636578 0 0 0
-8.0700016 -7.0548968 -2.0268121 0 0 0
-7.6535168 -7.0541015 -2.0404534 0 0 0
-7.2172298 -7.0015473 -2.1282334 0 0 0
-6.8371305 -7.0955157 -1.9887456 0 0 0
-6.6790237 -7.0169778 -2.0246325 0 0 0
-8.2167416 -6.7237391 -2.0064697 0 0 0
-8.0872755 -6.7281919 -2.0008359 0 0 0
-7.6536112 -6.723125 -2.1692972 0 0 0
-7.1901007 -6.7450576 -2.078299 0 0 0
-6.8661566 -6.6948924 -1.9914535 0 0 0
-6.6456947 -6.6872125 -2.0230408 0 0 0
-8.2431498 -6.3374438 -2.0497525 0 0 0
-8.0768242 -6.3539414 -2.0431764 0 0 0
-7.6224651 -6.3688889 -2.192086 0 0 0
-7.1994276 -6.406455 -2.0123117 0 0 0
-6.950717 -6.3625522 -2.0004265 0 0 0
-6.681076 -6.3634772 -1.9570678 0 0 0
-8.2607012 -6.0010042 -2.073889 0 0 0
-8.0618773 -6.0103235 -2.0274119 0 0 0
-7.5968027 -6.047812 -2.0431931 0 0 0
-7.266408 -6.0041337 -2.1805739 0 0 0
-6.8802137 -6.0110378 -2.0481272 0 0 0
-6.7032528 -5.9965849 -1.9430145 0 0 0
-8.2823496 -5.7182865 -2.1048751 0 0 0
-8.0303326 -5.6777749 -2.0312269 0 0 0
-7.5398111 -5.6736279 -1.9819442 0 0 0
-7.2893867 -5.6712399 -2.1662745 0 0 0
-6.9061613 -5.6779075 -2.0291998 0 0 0
-6.6440935 -5.6403379 -2.0023007 0 0 0
-8.2690649 -5.3089895 -2.0149708 0 0 0
-8.0296268 -5.2833838 -2.0450504 0 0 0
-7.5201664 -5.3391328 -1.9267029 0 0 0
-7.2376795 -5.3005657 -2.1265221 0 0 0
-7.030447 -5.2397189 -2.0583348 0 0 0
-6.587738 -5.324389 -2.013109 0 0 0
-8.3194408 -4.9296365 -1.9117645 0 0 0
-7.9939508 -4.990057 -2.0367641 0 0 0
-7.5371418 -4.9765973 -1.9041275 0 0 0
-7.3044786 -4.9826007 -2.1678166 0 0 0
-6.9885864 -5.1077967 -1.9385647 0 0 0
-6.5370512 -4.9733796 -1.9774522 0 0 0
-8.2478161 -4.5691266 -2.0149045 0 0 0
-8.0432196 -4.5803447 -2.0550435 0 0 0
-7.6379032 -4.55586 -2.0729978 0 0 0
-7.2784567 -4.6647029 -2.1920705 0 0 0
-6.8572845 -4.5077462 -2.019259 0 0 0
-6.5235767 -4.7008338 -1.9125618 0 0 0
-8.2502346 -4.3184538 -2.0756173 0 0 0
-7.9914179 -4.2709775 -2.0570946 0 0 0
-7.6493988 -4.25001 -2.1021566 0 0 0
-7.1815367 -4.271492 -2.147671 0 0 0
-6.9666615 -4.2314835 -2.1191511 0 0 0
-6.6301165 -4.2136741 -2.0453601 0 0 0
-8.2009783 -3.947134 -2.0214262 0 0 0
-7.9598179 -3.9119129 -2.0226173 0 0 0
-7.6710081 -3.9346848 -2.1031888 0 0 0
-7.1426554 -3.9444995 -2.1137433 0 0 0
-6.932806 -3.894124 -2.124696 0 0 0
-6.7089367 -3.9001698 -2.1364923 0 0 0
-8.1736164 -3.5273662 -1.9397911 0 0 0
-7.9141741 -3.5793929 -2.0210721 0 0 0
-7.6555243 -3.5543494 -2.084806 0 0 0
-7.3852768 -3.4901438 -1.9046539 0 0 0
-6.9221869 -3.5742817 -2.0813315 0 0 0
-6.6974392 -3.5445733 -2.0544515 0 0 0
-7.8909616 -3.2171412 -2.0431347 0 0 0
-7.6578913 -3.2254915 -2.0789661 0 0 0
-7.4224234 -3.2071619 -2.0481515 0 0 0
-6.9090776 -3.2147279 -2.0977798 0 0 0
-6.729353 -3.2450275 -2.0216455 0 0 0
-7.8965635 -2.8791203 -2.0258777 0 0 0
-7.6428185 -2.8806887 -2.1212845 0 0 0
-7.3562088 -2.841702 -2.1629338 0 0 0
-6.9256306 -2.8570943 -2.0966082 0 0 0
-6.6783047 -2.8733888 -2.1771209 0 0 0
-6.2935572 -2.7137122 -1.9998535 0 0 0
-7.9533768 -2.5107341 -1.9894032 0 0 0
-7.6580658 -2.4940095 -2.1501951 0 0 0
-7.1875029 -2.4507663 -2.1549249 0 0 0
-6.9315681 -2.5516915 -2.1332448 0 0 0
-6.5902834 -2.519546 -2.1058111 0 0 0
-6.2909737 -2.5436745 -2.0523973 0 0 0
-7.9364748 -2.1436293 -2.0478215 0 0 0
-7.7465811 -2.1622388 -2.1392827 0 0 0
-7.2583847 -2.1468632 -2.098464 0 0 0
-6.863245 -2.1645873 -2.0998673 0 0 0
-6.2667885 -2.1758304 -2.1466279 0 0 0
-7.8560886 -1.8318515 -2.0552957 0 0 0
-7.7305574 -1.7678003 -2.0969555 0 0 0
-7.2256727 -1.7933302 -2.0527124 0 0 0
-6.9341269 -1.756845 -2.020469 0 0 0
-6.5499477 -1.7649755 -2.0711403 0 0 0
-6.376297 -1.6659002 -2.1288629 0 0 0
-4.8510427 -1.6986816 -2.0901723 0 0 0
-4.6299362 -1.6544063 -1.9969085 0 0 0
-8.2272644 -1.5146666 -2.0113602 0 0 0
-7.9073572 -1.4589903 -2.0682068 0 0 0
-7.6771851 -1.458683 -2.048636 0 0 0
-7.2637415 -1.4639556 -1.9583743 0 0 0
-6.9476185 -1.5352857 -2.0588698 0 0 0
-6.5051565 -1.5091105 -2.0664423 0 0 0
-6.3040991 -1.4634752 -2.0041645 0 0 0
-5.1192522 -1.4413188 -2.1707604 0 0 0
-4.8127089 -1.4380319 -2.0591698 0 0 0
-4.5218287 -1.415993 -2.0348976 0 0 0
-4.1796951 -1.4436224 -1.9099716 0 0 0
-3.6988902 -1.3402512 -1.9450655 0 0 0
-8.1833458 -1.2482245 -1.9446224 0 0 0
-7.9029865 -1.1087778 -2.0504527 0 0 0
-7.6463861 -1.102272 -2.0506463 0 0 0
-7.2373371 -1.1545787 -1.963833 0 0 0
-6.9221287 -1.1036825 -2.0543654 0 0 0
-6.577177 -1.0255098 -2.1060386 0 0 0
-6.2103052 -1.1204908 -2.0314453 0 0 0
-5.9186697 -1.0661774 -2.0391259 0 0 0
-5.5499811 -1.0090957 -2.051476 0 0 0
-5.1428194 -1.119714 -2.1543903 0 0 0
-4.8122301 -1.0990932 -2.0358622 0 0 0
-4.4986167 -1.1048713 -2.0312712 0 0 0
-4.1114883 -1.0876505 -1.9916698 0 0 0
-3.809927 -1.1426685 -1.9485412 0 0 0
-7.8335571 -0.82661152 -2.1340287 0 0 0
-7.5968027 -0.75217867 -2.0395546 0 0 0
-7.2685976 -0.72677493 -2.0973098 0 0 0
-6.9727859 -0.74617767 -2.0821164 0 0 0
-6.563426 -0.78412056 -1.965886 0 0 0
-6.2337275 -0.73606658 -2.0519853 0 0 0
-5.9051962 -0.75798798 -2.1017461 0 0 0
-5.5138836 -0.76860309 -2.0715182 0 0 0
-5.1416187 -0.70602846 -2.0693543 0 0 0
-4.8452568 -0.79246688 -1.9956776 0 0 0
-4.4454117 -0.81933236 -2.0648632 0 0 0
-4.1743183 -0.80495405 -2.0131226 0 0 0
-3.9328415 -0.69171405 -1.9368156 0 0 0
-3.5012572 -0.68032861 -1.9869713 0 0 0
-7.843049 -0.41796255 -2.1787431 0 0 0
-7.6045122 -0.42006791 -2.0458794 0 0 0
-7.2940445 -0.40829635 -2.1209481 0 0 0
-6.9187918 -0.42939472 -2.146939 0 0 0
-6.6156473 -0.33125472 -2.1027586 0 0 0
-6.1809511 -0.43087995 -2.0580876 0 0 0
-5.872633 -0.43160605 -2.0638075 0 0 0
-5.4899988 -0.41677344 -2.0487359 0 0 0
-5.1869717 -0.46573424 -2.0336082 0 0 0
-4.8606348 -0.40615225 -2.016875 0 0 0
-4.4678688 -0.37226689 -2.0324922 0 0 0
-4.1395159 -0.43877792 -2.0114322 0 0 0
-3.8540165 -0.51506639 -1.9654112 0 0 0
-3.4062247 -0.41899896 -1.9064445 0 0 0
-2.8239367 -0.27061844 -1.9078697 0 0 0
-7.8318415 -0.095348835 -2.0847268 0 0 0
-7.6107388 -0.039132833 -2.0545638 0 0 0
-7.2682428 -0.060243368 -2.1166117 0 0 0
-7.0054817 -0.044859409 -2.0774901 0 0 0
-6.5536957 -0.1177516 -2.0333962 0 0 0
-6.2524452 -0.033449888 -2.0536165 0 0 0
-5.9408455 -0.031209826 -2.0861416 0 0 0
-5.5487566 0.034968972 -2.1350915 0 0 0
-5.0622044 -0.050396562 -2.1150541 0 0 0
-4.8258743 -0.10185754 -2.0240681 0 0 0
-4.5008211 -0.13252246 -2.0324724 0 0 0
-4.2748966 -0.19169354 -1.9407028 0 0 0
-2.6546187 -0.078628778 -1.9773767 0 0 0
-2.3334496 -0.01315999 -1.994827 0 0 0
-2.0552492 0.046889186 -1.9401768 0 0 0
-7.8026161 0.18181992 -2.1762528 0 0 0
-7.6011782 0.2879684 -2.1091051 0 0 0
-7.2608099 0.27903652 -2.1098223 0 0 0
-6.9690971 0.31841207 -2.0787499 0 0 0
-6.674613 0.22916985 -1.9888843 0 0 0
-6.154767 0.21117604 -2.065093 0 0 0
-5.8635368 0.21797967 -2.0108936 0 0 0
-5.5534706 0.27402961 -2.0230918 0 0 0
-5.1858263 0.31927323 -2.1100967 0 0 0
-4.8600268 0.3548795 -2.0785902 0 0 0
-4.4180889 0.19393241 -2.0624604 0 0 0
-2.2580984 0.16380882 -2.1723351 0 0 0
-2.0270753 0.28472722 -2.0418336 0 0 0
-1.6637704 0.33086681 -2.0074568 0 0 0
-1.3349388 0.33553267 -1.950045 0 0 0
-1.0356574 0.31353521 -1.9372715 0 0 0
-0.73719734 0.35991645 -1.920388 0 0 0
-7.5333185 0.63067037 -2.0587373 0 0 0
-7.2283945 0.66771036 -2.0884557 0 0 0
-6.9551277 0.64793664 -2.0742304 0 0 0
-6.7058105 0.65076679 -1.9827718 0 0 0
-5.4741135 0.52104211 -1.9320688 0 0 0
-5.0998573 0.54462373 -1.9047319 0 0 0
-4.7809587 0.56247085 -1.9420955 0 0 0
-4.5337877 0.6322574 -1.9098932 0 0 0
-2.0027471 0.50244772 -1.9568154 0 0 0
-1.4484329 0.57396328 -2.040874 0 0 0
-0.61319947 0.65265816 -1.9862987 0 0 0
-0.32196492 0.70054114 -1.9436083 0 0 0
-0.0071319342 0.74582845 -1.9450808 0 0 0
-7.5314512 0.97261435 -2.0011344 0 0 0
-7.28613 0.99253404 -2.0450072 0 0 0
-6.9457579 0.98354965 -2.0423892 0 0 0
-6.6989508 0.97618902 -1.9611169 0 0 0
-6.3534775 1.0522137 -1.946999 0 0 0
-4.7799225 0.8906911 -1.886454 0 0 0
-1.3789122 0.97396755 -1.9320186 0 0 0
-0.59605336 0.83431768 -2.1107316 0 0 0
-0.24583483 0.86487091 -2.0854278 0 0 0
0.14282179 0.93506163 -2.0113125 0 0 0
0.36744714 1.0476714 -1.9783746 0 0 0
1.0447323 1.0459137 -1.9236206 0 0 0
-7.8769569 1.3218536 -1.9250931 0 0 0
-7.5768356 1.368156 -1.9906776 0 0 0
-7.3123598 1.3372589 -2.0543075 0 0 0
-6.9114399 1.3147414 -2.1115513 0 0 0
-6.6043568 1.3730855 -2.0850301 0 0 0
-6.2712078 1.3857599 -2.0326881 0 0 0
0.47204149 1.2032806 -2.0700846 0 0 0
0.63281798 1.2227898 -1.9375519 0 0 0
1.0283172 1.1920457 -1.9950927 0 0 0
1.3989627 1.4375496 -1.9385322 0 0 0
-7.8785839 1.7386897 -2.0038414 0 0 0
-7.58465 1.6804001 -1.9898304 0 0 0
-7.2728882 1.6936111 -2.0587101 0 0 0
-6.9677343 1.6940221 -2.1823165 0 0 0
-6.5514174 1.7194228 -2.1227458 0 0 0
-6.3340034 1.716921 -1.9871631 0 0 0
-7.8866634 2.0410056 -1.9987087 0 0 0
-7.5808163 1.9998671 -1.9507912 0 0 0
-7.2407856 2.0328791 -2.0405307 0 0 0
-7.0277681 2.0773778 -2.1117449 0 0 0
-6.5514002 2.0550036 -2.1067376 0 0 0
-6.3286448 2.0044236 -2.0608025 0 0 0
-8.2051163 2.4094052 -2.1728902 0 0 0
-7.937892 2.3818095 -2.0271785 0 0 0
-7.572443 2.4007425 -2.0757859 0 0 0
-7.2635632 2.3797927 -2.0863669 0 0 0
-6.9702425 2.4141476 -2.168119 0 0 0
-6.575099 2.3810611 -2.09461 0 0 0
-6.3584194 2.3774843 -2.0229232 0 0 0
-7.9018297 2.7258344 -2.0054915 0 0 0
-7.6256218 2.7470124 -2.0877261 0 0 0
-7.3025894 2.7430921 -2.1385186 0 0 0
-6.9345531 2.7626863 -2.1628516 0 0 0
-6.6019745 2.732204 -2.1226685 0 0 0
-6.314435 2.7713599 -1.9713553 0 0 0
-7.9007826 3.1365235 -1.9948753 0 0 0
-7.6069736 3.0924375 -2.0884566 0 0 0
-7.3384495 3.0929275 -2.1210284 0 0 0
-6.910017 3.0586724 -2.1099074 0 0 0
-6.5799847 3.0921338 -2.1240118 0 0 0
-6.2617197 3.1251941 -2.052362 0 0 0
-6.0416498 3.0261016 -2.0191698 0 0 0
-7.9092693 3.3959312 -2.0862586 0 0 0
-7.5971327 3.475889 -2.0652359 0 0 0
-7.2452183 3.4305456 -2.0963116 0 0 0
-6.8880177 3.4256551 -2.1378548 0 0 0
-6.5488997 3.4355483 -2.1023278 0 0 0
-6.2666922 3.4431386 -2.0760913 0 0 0
-6.018877 3.4910209 -1.9816498 0 0 0
-8.2591801 3.8758156 -2.1553926 0 0 0
-7.9908237 3.8886278 -1.9654106 0 0 0
-7.5636568 3.7714469 -2.0097275 0 0 0
-7.341609 3.8112841 -2.1145604 0 0 0
-6.8859015 3.8182662 -2.1061335 0 0 0
-6.5535698 3.795105 -2.0931885 0 0 0
-6.2850523 3.7917328 -2.0813808 0 0 0
-6.0067806 3.8052521 -2.0363901 0 0 0
-8.2084236 4.1141553 -2.0680661 0 0 0
-8.0262623 4.1440325 -1.9726691 0 0 0
-7.4931479 4.1051793 -2.034409 0 0 0
-7.303483 4.1645956 -2.118665 0 0 0
-6.8937044 4.1488056 -2.1554871 0 0 0
-6.5496473 4.147151 -2.1136959 0 0 0
-6.2980413 4.1367655 -2.1153769 0 0 0
-5.9387321 4.1468658 -2.0294995 0 0 0
-7.4866562 4.4664259 -1.936711 0 0 0
-7.3005686 4.4777021 -2.0689418 0 0 0
-6.9397135 4.4858193 -2.1470935 0 0 0
-6.5418262 4.4797287 -2.0991204 0 0 0
-6.2780895 4.4882812 -2.0683119 0 0 0
-5.8991766 4.4560661 -2.0400853 0 0 0
-7.9894323 4.9127865 -1.9967998 0 0 0
-7.5016508 4.8620548 -1.9259323 0 0 0
-7.2949877 4.8342543 -2.0677192 0 0 0
-6.9254541 4.8408089 -2.1276827 0 0 0
-6.5507116 4.8241181 -2.1171172 0 0 0
-6.2591391 4.8506403 -2.0185258 0 0 0
-5.9884968 4.8417802 -2.1014924 0 0 0
-8.1814556 5.0414152 -2.0498261 0 0 0
-7.9927654 5.0847387 -1.9942504 0 0 0
-7.280179 5.1715565 -2.0769222 0 0 0
-6.8960085 5.1933293 -2.0740938 0 0 0
-6.5976286 5.2510033 -2.0848739 0 0 0
-6.2356005 5.1766348 -2.018975 0 0 0
-6.033576 5.1729937 -1.923631 0 0 0
-7.8275824 5.6673975 -2.0993929 0 0 0
-7.7727976 5.6248655 -1.9173441 0 0 0
-7.2791119 5.5185728 -2.0408285 0 0 0
-6.9140873 5.4920654 -1.9810637 0 0 0
-6.5872593 5.526979 -2.052592 0 0 0
-6.2256222 5.5446367 -2.0447369 0 0 0
-6.0367727 5.5439224 -1.9942045 0 0 0
-7.8617659 5.7379856 -2.0707593 0 0 0
-7.7314959 5.8026619 -1.9113363 0 0 0
-7.2255831 5.891263 -2.065098 0 0 0
-6.9056225 5.929132 -2.1049213 0 0 0
-6.574976 5.8913627 -2.0793641 0 0 0
-6.2160044 5.8995733 -2.0685103 0 0 0
-6.0386562 5.8910098 -2.1103914 0 0 0
-7.7345057 6.3121538 -1.9131244 0 0 0
-7.2437572 6.2321229 -2.0332272 0 0 0
-6.9462852 6.2707362 -2.1409194 0 0 0
-6.5559797 6.2416773 -2.1115351 0 0 0
-6.2202997 6.2147307 -2.0709939 0 0 0
-6.0213223 6.2150464 -1.9950663 0 0 0
-7.782526 6.4625769 -2.023932 0 0 0
-7.2366028 6.615449 -2.0524416 0 0 0
-6.9303522 6.5761895 -2.1148109 0 0 0
-6.5762043 6.5798435 -2.1146338 0 0 0
-6.2420225 6.5941114 -2.1044273 0 0 0
-5.9872065 6.5823259 -2.0054357 0 0 0
-7.2170305 6.9296145 -2.0453889 0 0 0
-6.9659958 6.9418573 -2.1371715 0 0 0
-6.520606 6.9151316 -2.1281054 0 0 0
-6.2352762 6.952106 -2.0649204 0 0 0
-6.0198135 6.9993916 -2.0505004 0 0 0
-7.2445326 7.289639 -2.0074124 0 0 0
-6.9880743 7.2865443 -2.1629443 0 0 0
-6.5173655 7.282753 -2.1596732 0 0 0
-6.200551 7.2745619 -2.0555716 0 0 0
-6.0030632 7.3203106 -2.0165875 0 0 0
-7.5824127 7.5878134 -1.9950445 0 0 0
-7.2216311 7.627687 -2.0520196 0 0 0
-6.9072208 7.6337738 -2.1500466 0 0 0
-6.5665073 7.6710691 -2.143086 0 0 0
-6.1865406 7.6420498 -2.0504396 0 0 0
-5.9528017 7.6461668 -1.9598887 0 0 0
-7.4552059 8.0152111 -1.9161342 0 0 0
-7.2382746 7.9980788 -2.04001 0 0 0
-6.9409065 7.9999866 -2.1527548 0 0 0
-6.5397186 7.9359984 -2.1510284 0 0 0
-6.228426 7.9872141 -2.0720546 0 0 0
-5.9242125 8.0123167 -2.0042412 0 0 0
-5.6734562 8.0438156 -2.0571115 0 0 0
-7.2196064 8.3203831 -1.9871888 0 0 0
-6.952899 8.3522053 -2.133975 0 0 0
-6.4922295 8.3318882 -2.1447392 0 0 0
-6.2317572 8.3576508 -2.1135879 0 0 0
-5.9319 8.3362103 -2.013762 0 0 0
-5.6743355 8.2215786 -2.0935121 0 0 0
-7.1844006 8.6715698 -1.951316 0 0 0
-6.9728546 8.677002 -2.1133375 0 0 0
-6.5620747 8.6593933 -2.1493275 0 0 0
-6.2105341 8.7047329 -2.1284058 0 0 0
-5.9517527 8.6997948 -2.025028 0 0 0
-7.165617 9.0294628 -1.9451518 0 0 0
-6.9620619 9.0548801 -2.0776184 0 0 0
-6.578083 9.0286331 -2.0987182 0 0 0
-6.2071009 9.0405502 -2.0882039 0 0 0
-5.9188099 9.0421181 -2.0351841 0 0 0
-5.6610899 9.0357285 -2.0065188 0 0 0
-7.545578 9.4755936 -1.9148735 0 0 0
-7.1350842 9.358345 -1.9623195 0 0 0
-6.9168205 9.3944721 -2.1132371 0 0 0
-6.4664688 9.3433189 -2.1667702 0 0 0
-6.2216749 9.3882074 -2.0724571 0 0 0
-5.906208 9.3955755 -2.0449724 0 0 0
-5.6106958 9.431963 -1.9276718 0 0 0
-7.1131163 9.822073 -2.012732 0 0 0
-6.9281187 9.7484283 -2.0746531 0 0 0
-6.6291533 9.8067207 -2.1762512 0 0 0
-6.2003698 9.7445526 -2.0521615 0 0 0
-5.9005156 9.7281189 -2.0270412 0 0 0
-5.6548309 9.6550598 -1.9808588 0 0 0
-7.1578274 10.123724 -1.9564898 0 0 0
-6.9144325 10.069868 -2.069761 0 0 0
-6.5807123 10.068705 -2.1150143 0 0 0
-6.1849146 10.057907 -2.0581758 0 0 0
-5.9130945 10.108196 -1.9908139 0 0 0
-7.5077066 10.36009 -2.0215521 0 0 0
-7.1842642 10.485064 -1.9079002 0 0 0
-7.0156755 10.390791 -1.9568361 0 0 0
-6.516221 10.422224 -2.1358733 0 0 0
-6.1937246 10.370399 -2.084919 0 0 0
-5.8742723 10.442688 -1.9866525 0 0 0
-5.6957569 10.521015 -2.0453477 0 0 0
-7.4639568 10.708475 -2.0473161 0 0 0
-7.3579483 10.776993 -1.9258751 0 0 0
-6.8659697 10.806307 -2.0136087 0 0 0
-6.4719963 10.699326 -2.1358016 0 0 0
-6.080266 10.859957 -1.9981693 0 0 0
-5.8661213 10.795643 -2.0311205 0 0 0
-5.6406317 10.778475 -2.0189624 0 0 0
-7.3880072 11.000656 -1.9101814 0 0 0
-6.9856119 11.125729 -1.9287304 0 0 0
-6.4154968 11.161795 -2.2181077 0 0 0
-6.1137676 11.139872 -2.1194398 0 0 0
-5.871665 11.13588 -2.0514045 0 0 0
-5.6724958 11.145197 -2.1277719 0 0 0
-7.2958164 11.663136 -1.8756737 0 0 0
-6.9621029 11.478615 -1.8805234 0 0 0
-6.1140747 11.338194 -2.1500688 0 0 0
-5.8844252 11.504234 -2.0631037 0 0 0
-5.638917 11.536856 -2.0527253 0 0 0
-7.2920361 11.735374 -1.8931717 0 0 0
-6.869607 11.889746 -1.9319062 0 0 0
-6.7401571 11.915766 -2.0770631 0 0 0
-6.1413689 11.876398 -2.0790105 0 0 0
-5.884016 11.820562 -1.9973017 0 0 0
-5.6255941 11.874302 -2.1069498 0 0 0
-6.9176369 12.168245 -1.9292415 0 0 0
-6.1620569 12.185684 -2.0964963 0 0 0
-5.927804 12.178633 -1.9803544 0 0 0
-5.5727396 12.183699 -2.1389163 0 0 0
-7.2340755 12.695356 -1.8899521 0 0 0
-6.902997 12.559532 -1.9961615 0 0 0
-6.1751022 12.555178 -2.1688967 0 0 0
-5.9751072 12.538748 -2.0376463 0 0 0
-5.5572004 12.512236 -2.141016 0 0 0
-7.1952963 12.902626 -1.9521608 0 0 0
-6.8108845 12.891727 -1.9901776 0 0 0
-6.6554708 12.91914 -2.1386058 0 0 0
-6.188818 12.888199 -2.1481602 0 0 0
-5.9319162 12.898035 -1.960175 0 0 0
-5.5674963 12.962215 -2.1453526 0 0 0
-7.1993561 13.202997 -1.9888633 0 0 0
-6.8134251 13.193001 -1.9336249 0 0 0
-6.6042662 13.233271 -2.0956583 0 0 0
-6.12253 13.260384 -2.1125855 0 0 0
-5.9067249 13.245939 -1.975988 0 0 0
-5.5488863 13.223209 -2.0927367 0 0 0
-6.8591661 13.595406 -2.023566 0 0 0
-6.4958706 13.553888 -2.0036952 0 0 0
-6.1633701 13.525352 -2.0921452 0 0 0
-5.8655081 13.59358 -2.0152977 0 0 0
-5.6089563 13.623529 -2.0583985 0 0 0
-6.7996483 13.893852 -1.9979584 0 0 0
-6.511198 13.853331 -2.0306058 0 0 0
-6.1314363 13.990547 -2.1322222 0 0 0
-5.85637 13.938837 -2.0511737 0 0 0
-5.5706282 13.977377 -2.0457549 0 0 0
-6.8550186 14.259529 -2.0226104 0 0 0
-6.7198553 14.246904 -2.1425118 0 0 0
-6.1143923 14.240864 -2.0931156 0 0 0
-5.8762293 14.211824 -2.042048 0 0 0
-5.5598965 14.286707 -1.9989674 0 0 0
-5.3244247 14.263601 -1.9388818 0 0 0
-7.1047859 14.634777 -2.0713906 0 0 0
-6.8434181 14.640774 -2.0042377 0 0 0
-6.1494961 14.500095 -1.9660419 0 0 0
-5.7286768 14.705795 -2.0481312 0 0 0
-5.5850782 14.628294 -2.039546 0 0 0
-6.7767172 14.982515 -1.9777708 0 0 0
-6.7248487 15.10821 -1.9997581 0 0 0
-5.7082167 14.833715 -2.0406651 0 0 0
-5.569437 14.953972 -2.0546701 0 0 0
-6.6676369 15.315382 -1.9723179 0 0 0
-5.5806131 15.279709 -2.0765259 0 0 0
-6.7634945 14.283558 -2.1055527 0 0 0
-6.5125532 -0.23060453 -2.6552262 0 0 0
-6.5330038 -1.1239619 -2.4189806 0 0 0
-7.7126999 -8.4528561 -2.7065806 0 0 0
-5.6631517 12.899038 -1.9960499 0 0 0
-8.2137852 -14.476648 -2.7233939 0 0 0
-6.0903254 6.0897026 -2.4793274 0 0 0
-7.2270584 -5.2215238 -2.9931936 0 0 0
-8.027009 -10.221882 -3.1348696 0 0 0
-6.1975336 7.9636135 -2.019022 0 0 0
-7.3457384 -8.4639034 -2.0094945 0 0 0
-6.413394 3.6170638 -2.1381388 0 0 0
-8.1889849 -14.341984 -3.066308 0 0 0
-8.2036753 -14.568808 -3.051893 0 0 0
-6.7691193 -5.2602186 -2.3870912 0 0 0
-6.4464436 -0.40772665 -2.3337612 0 0 0
-7.7841368 -10.280117 -3.4142604 0 0 0
-5.7499638 10.913465 -2.1036634 0 0 0
-5.6955376 12.849356 -2.2869277 0 0 0
-6.6803455 7.0981956 -2.2842469 0 0 0
-6.710454 7.9811044 -2.2626216 0 0 0
-6.3059397 5.5500712 -2.2982078 0 0 0
-7.8034334 5.6755266 -2.3682921 0 0 0
-7.310523 1.5569555 -1.9233785 0 0 0
-7.4947567 -17.647532 -1.732592 0 0 0
-7.2710371 -17.572126 -1.7233528 0 0 0
-8.681118 -17.10132 -1.7267097 0 0 0
-7.2735109 -17.23105 -1.7988126 0 0 0
-8.6584358 -16.845161 -1.8480896 0 0 0
-7.2893066 -16.849382 -1.8438934 0 0 0
-7.4622765 -16.391975 -1.8359131 0 0 0
-7.1173172 -16.367958 -1.8377365 0 0 0
-7.057312 -16.414345 -1.7541801 0 0 0
-8.5432167 -16.156446 -1.7884544 0 0 0
-7.4194021 -16.089422 -1.7864231 0 0 0
-8.6170435 -15.882587 -1.7804232 0 0 0
-8.1971359 -15.814951 -1.807074 0 0 0
-7.2699165 -15.880388 -1.7566017 0 0 0
-7.0334291 -15.80258 -1.7484123 0 0 0
-8.6060076 -15.411879 -1.851519 0 0 0
-7.0314035 -15.531837 -1.7228823 0 0 0
-8.6197414 -15.179686 -1.7960411 0 0 0
-8.4292088 -14.978249 -1.8072571 0 0 0
-7.6852503 -15.163795 -1.8122505 0 0 0
-7.3715553 -15.16699 -1.8518032 0 0 0
-7.046546 -14.996778 -1.7871917 0 0 0
-8.5280952 -14.893255 -1.8511719 0 0 0
-8.2691669 -14.853432 -1.8373111 0 0 0
-8.1478577 -14.743944 -1.7954506 0 0 0
-7.3195238 -14.792957 -1.8599914 0 0 0
-7.0340157 -14.804144 -1.8010505 0 0 0
-8.5803165 -14.292864 -1.8462738 0 0 0
-8.3223972 -14.416805 -1.8248924 0 0 0
-7.1027565 -14.44013 -1.7902702 0 0 0
-7.0825958 -14.331869 -1.7864898 0 0 0
-8.5378504 -14.085926 -1.8321798 0 0 0
-8.4119663 -14.077295 -1.8277916 0 0 0
-8.0189686 -14.029095 -1.7234057 0 0 0
-7.0320568 -14.0879 -1.7528566 0 0 0
-8.5712166 -13.864744 -1.7985367 0 0 0
-8.3774204 -13.688583 -1.8234514 0 0 0
-7.9771614 -13.755623 -1.7567071 0 0 0
-7.0089169 -13.68297 -1.7634306 0 0 0
-8.5248775 -13.205275 -1.84487 0 0 0
-8.3318863 -13.314207 -1.8582777 0 0 0
-8.0527506 -13.316816 -1.7913917 0 0 0
-7.3436613 -13.301525 -1.850716 0 0 0
-6.9505768 -13.432697 -1.7258705 0 0 0
-8.5633068 -13.138508 -1.7224411 0 0 0
-8.3785305 -12.958508 -1.7946584 0 0 0
-7.9577837 -12.992144 -1.825738 0 0 0
-7.7380772 -12.899921 -1.8352112 0 0 0
-7.3865919 -13.051197 -1.8213516 0 0 0
-8.3487568 -12.722782 -1.7939466 0 0 0
-7.783226 -12.755924 -1.7836212 0 0 0
-7.2601166 -12.521444 -1.8424934 0 0 0
-6.8786516 -12.595974 -1.7077764 0 0 0
-8.2200966 -12.408731 -1.8707718 0 0 0
-7.1924973 -12.40934 -1.8102211 0 0 0
-6.9620333 -12.241161 -1.6939993 0 0 0
-8.1909752 -11.85391 -1.8580307 0 0 0
-7.4608765 -11.869282 -1.8230346 0 0 0
-7.3007164 -11.859268 -1.7891358 0 0 0
-6.9915371 -11.974171 -1.6960118 0 0 0
-8.2728062 -11.57304 -1.6580943 0 0 0
-7.4755764 -11.479172 -1.8612541 0 0 0
-7.2485867 -11.600569 -1.7911108 0 0 0
-6.981534 -11.638191 -1.6610521 0 0 0
-8.2282171 -11.240396 -1.743988 0 0 0
-8.1412773 -11.176996 -1.868811 0 0 0
-7.5218601 -11.368879 -1.6984863 0 0 0
-7.2715216 -11.340498 -1.6840774 0 0 0
-6.9976168 -11.274483 -1.7415508 0 0 0
-8.2170162 -10.92853 -1.8185968 0 0 0
-6.9580221 -10.96686 -1.7597783 0 0 0
-8.2224064 -10.582283 -1.8619522 0 0 0
-8.1454754 -10.394438 -1.8587288 0 0 0
-7.6294365 -10.494091 -1.524691 0 0 0
-8.2049971 -10.198341 -1.7711722 0 0 0
-8.1051092 -10.19591 -1.8509367 0 0 0
-7.6843166 -10.219625 -1.7298607 0 0 0
-8.229866 -9.8792706 -1.7137542 0 0 0
-8.1056223 -9.8750515 -1.7608951 0 0 0
-7.6310234 -9.8538189 -1.7059202 0 0 0
-8.2079153 -9.4848194 -1.7381933 0 0 0
-8.0743227 -9.4924736 -1.7899555 0 0 0
-7.6561775 -9.680397 -1.66371 0 0 0
-8.287406 -9.1229458 -1.8118631 0 0 0
-8.0870028 -9.1831989 -1.7638109 0 0 0
-8.2666616 -8.8506927 -1.7793099 0 0 0
-7.9806643 -8.7830162 -1.7809654 0 0 0
-7.6141586 -8.7713852 -1.645512 0 0 0
-8.1908712 -8.4471855 -1.7507919 0 0 0
-7.9693565 -8.4634171 -1.6815538 0 0 0
-7.6837568 -8.5519066 -1.6177038 0 0 0
-8.2234564 -8.2378159 -1.6140121 0 0 0
-7.888629 -8.1255913 -1.7109083 0 0 0
-7.2059059 -8.1142502 -1.6784898 0 0 0
-8.2406759 -7.6516433 -1.8480921 0 0 0
-7.9090862 -7.7481914 -1.7718616 0 0 0
-7.7674561 -7.7857242 -1.7766114 0 0 0
-7.1313162 -7.7744222 -1.6048416 0 0 0
-7.0884781 -7.8545585 -1.5353302 0 0 0
-8.257741 -7.3805213 -1.7011698 0 0 0
-7.9742565 -7.3704438 -1.7557044 0 0 0
-7.7429066 -7.4509625 -1.7615713 0 0 0
-7.1630964 -7.3575339 -1.745644 0 0 0
-7.0498371 -7.2967467 -1.7174234 0 0 0
-8.2154484 -7.0607982 -1.7981666 0 0 0
-8.0455246 -7.1034474 -1.673364 0 0 0
-7.7704639 -7.0980124 -1.8115995 0 0 0
-7.1024761 -7.2269244 -1.6540512 0 0 0
-6.9849968 -7.0750747 -1.7778322 0 0 0
-6.5833569 -7.1459203 -1.8625168 0 0 0
-8.1721706 -6.7539201 -1.775337 0 0 0
-8.130496 -6.7765775 -1.7379122 0 0 0
-6.9172144 -6.6944308 -1.7511272 0 0 0
-6.5001965 -6.7778258 -1.7850937 0 0 0
-8.1976967 -6.3731904 -1.8132309 0 0 0
-7.9383001 -6.3923683 -1.5693992 0 0 0
-7.7795868 -6.3447356 -1.702 0 0 0
-6.9096222 -6.3895807 -1.7074496 0 0 0
-6.7419777 -6.3757386 -1.8412308 0 0 0
-8.1948967 -5.921382 -1.7760382 0 0 0
-8.0344954 -5.9867396 -1.7719954 0 0 0
-7.7557592 -5.9526 -1.7353497 0 0 0
-6.8233166 -6.0694637 -1.6725547 0 0 0
-6.7405777 -5.9508948 -1.8598503 0 0 0
-8.2142363 -5.6297846 -1.7387309 0 0 0
-7.9809504 -5.6920967 -1.6852126 0 0 0
-7.6915035 -5.6756172 -1.7657404 0 0 0
-6.882163 -5.549099 -1.7745218 0 0 0
-6.6260366 -5.610631 -1.6707536 0 0 0
-8.3169765 -5.3311234 -1.7706221 0 0 0
-8.0064383 -5.3172131 -1.661688 0 0 0
-7.6582766 -5.2608461 -1.7579308 0 0 0
-7.3398323 -5.1717329 -1.6985725 0 0 0
-6.8808289 -5.3806043 -1.6949451 0 0 0
-6.6809015 -5.3767195 -1.6429218 0 0 0
-8.2856693 -5.0199118 -1.7692012 0 0 0
-8.0136318 -4.9337721 -1.7395573 0 0 0
-7.629178 -4.9545174 -1.7528592 0 0 0
-7.2849159 -4.9639568 -1.6199397 0 0 0
-6.8647556 -4.9782643 -1.7367073 0 0 0
-6.6440363 -4.9496517 -1.6030318 0 0 0
-8.2037392 -4.635375 -1.8068146 0 0 0
-7.9950724 -4.5394974 -1.6762899 0 0 0
-7.6737185 -4.6405015 -1.7379395 0 0 0
-7.3761368 -4.62884 -1.6052716 0 0 0
-6.5482397 -4.5252419 -1.7830032 0 0 0
-8.0227871 -4.2449903 -1.7504104 0 0 0
-7.6370459 -4.2258053 -1.7553626 0 0 0
-7.3812399 -4.2359157 -1.7851617 0 0 0
-6.7951488 -4.315949 -1.7927917 0 0 0
-6.5846214 -4.2637815 -1.6890863 0 0 0
-6.3459167 -4.2944045 -1.8053917 0 0 0
-8.1771164 -4.0065408 -1.8360504 0 0 0
-8.0065289 -3.8863044 -1.7757761 0 0 0
-7.6123657 -3.9262428 -1.7258812 0 0 0
-7.2995844 -3.921217 -1.7485269 0 0 0
-6.6523066 -3.9837623 -1.5840292 0 0 0
-7.9779987 -3.5471725 -1.7716968 0 0 0
-7.6833105 -3.4930239 -1.7480931 0 0 0
-7.2975664 -3.5270667 -1.7440407 0 0 0
-7.9046926 -3.2158871 -1.6935136 0 0 0
-7.6313944 -3.1828198 -1.6815164 0 0 0
-7.3462868 -3.2117171 -1.6492091 0 0 0
-7.0796556 -3.3293872 -1.5799927 0 0 0
-7.8911448 -2.8548379 -1.7281644 0 0 0
-7.6443815 -2.883173 -1.6195467 0 0 0
-7.3567514 -2.8707409 -1.6424778 0 0 0
-6.9077568 -2.7853279 -1.6679312 0 0 0
-6.727416 -2.848588 -1.808287 0 0 0
-6.1949978 -2.7347221 -1.8539718 0 0 0
-7.9226732 -2.5115237 -1.7580391 0 0 0
-7.5652609 -2.5352731 -1.5980041 0 0 0
-7.359726 -2.5697436 -1.6156074 0 0 0
-6.9082966 -2.5581398 -1.7447685 0 0 0
-7.8650246 -2.2231493 -1.7437271 0 0 0
-7.6503277 -2.0903199 -1.6765138 0 0 0
-7.3623161 -2.1801975 -1.7378391 0 0 0
-7.8828363 -1.7443085 -1.652185 0 0 0
-7.6687126 -1.76156 -1.6984142 0 0 0
-7.3219967 -1.7845564 -1.7067739 0 0 0
-6.9825039 -1.7135544 -1.7572472 0 0 0
-6.654006 -1.7359993 -1.8011917 0 0 0
-6.3520775 -1.6477706 -1.590773 0 0 0
-4.7274818 -1.7805009 -1.8455385 0 0 0
-7.9118156 -1.3410726 -1.6401886 0 0 0
-7.6031475 -1.4546456 -1.6990461 0 0 0
-7.3494234 -1.4488091 -1.7263916 0 0 0
-6.9337559 -1.5186121 -1.7136754 0 0 0
-6.598712 -1.4887009 -1.7139649 0 0 0
-6.1943474 -1.4708145 -1.594577 0 0 0
-6.007864 -1.3258126 -1.6217585 0 0 0
-4.4421358 -1.4567327 -1.7406245 0 0 0
-4.1403828 -1.3866625 -1.6854118 0 0 0
-3.7691002 -1.4620945 -1.6904644 0 0 0
-3.5883372 -1.4113665 -1.5713791 0 0 0
-7.9776754 -1.1873984 -1.7633516 0 0 0
-7.560461 -1.1497297 -1.7358879 0 0 0
-7.2639418 -1.0886958 -1.699972 0 0 0
-6.9741611 -1.0055244 -1.7069908 0 0 0
-6.6680565 -1.2706525 -1.5576614 0 0 0
-6.1035166 -1.0943964 -1.8118913 0 0 0
-5.9712019 -1.1023433 -1.6985071 0 0 0
-5.2926264 -0.95722055 -1.6735119 0 0 0
-4.6633968 -1.1197791 -1.8115969 0 0 0
-4.4917932 -1.0706923 -1.7245708 0 0 0
-4.1757765 -1.0589948 -1.7200783 0 0 0
-3.7879701 -1.1094186 -1.7159389 0 0 0
-7.5583868 -0.72929287 -1.7197708 0 0 0
-7.2217188 -0.78555417 -1.7595443 0 0 0
-6.988636 -0.78983188 -1.7122985 0 0 0
-6.5696135 -0.7175312 -1.7999897 0 0 0
-6.1629562 -0.79442739 -1.7919323 0 0 0
-5.9023104 -0.73801088 -1.6869309 0 0 0
-5.5271034 -0.71810412 -1.6867338 0 0 0
-5.1342835 -0.74471474 -1.7001654 0 0 0
-4.7748685 -0.74346542 -1.6838051 0 0 0
-4.47328 -0.75008106 -1.6816872 0 0 0
-4.127357 -0.80205917 -1.7132627 0 0 0
-3.7663028 -0.76056933 -1.7274375 0 0 0
-3.418262 -0.71718264 -1.6585447 0 0 0
-3.2132771 -0.62094522 -1.6647871 0 0 0
-2.7859976 -0.61401057 -1.5346283 0 0 0
-7.5847292 -0.4184587 -1.6940368 0 0 0
-7.2507782 -0.43202126 -1.8008548 0 0 0
-6.8967161 -0.4330548 -1.7463967 0 0 0
-6.4846487 -0.46728802 -1.7348707 0 0 0
-6.234129 -0.42421818 -1.7209519 0 0 0
-5.8992653 -0.38456726 -1.6616089 0 0 0
-5.4862013 -0.44450736 -1.6967317 0 0 0
-5.1747713 -0.42188847 -1.7498223 0 0 0
-4.7804193 -0.41915333 -1.7163258 0 0 0
-4.4748039 -0.38484085 -1.6833913 0 0 0
-4.1319036 -0.41159642 -1.7329768 0 0 0
-3.8049636 -0.429546 -1.6796774 0 0 0
-3.4206803 -0.49026561 -1.6381547 0 0 0
-3.0629168 -0.37616277 -1.6764015 0 0 0
-2.7202346 -0.3039794 -1.6915584 0 0 0
-2.4142189 -0.35022163 -1.6162053 0 0 0
-7.5728798 -0.054456353 -1.7413008 0 0 0
-7.2559166 -0.049633384 -1.7322645 0 0 0
-6.9520636 -0.058332682 -1.7241037 0 0 0
-6.4820013 -0.017764211 -1.72471 0 0 0
-6.257431 0.046699047 -1.7062064 0 0 0
-5.932147 0.071152925 -1.58293 0 0 0
-5.5128326 -0.21079648 -1.752581 0 0 0
-5.2329168 -0.17972708 -1.8109907 0 0 0
-4.7666044 -0.10699487 -1.7470939 0 0 0
-4.4370251 -0.11783147 -1.7542009 0 0 0
-4.1898584 -0.10061359 -1.6409447 0 0 0
-3.9425356 -0.20210242 -1.5493301 0 0 0
-3.2955036 -0.1042285 -1.5840032 0 0 0
-3.0937448 -0.16039932 -1.7095296 0 0 0
-2.7210684 -0.11661112 -1.6874565 0 0 0
-2.3549414 -0.11892259 -1.6490005 0 0 0
-2.0338414 -0.018370867 -1.6609248 0 0 0
-1.6728892 0.049306035 -1.6137092 0 0 0
-1.4199088 0.079183459 -1.5977914 0 0 0
-1.039771 0.040369153 -1.6304466 0 0 0
-7.5263147 0.20848811 -1.7688576 0 0 0
-7.3795834 0.29729152 -1.6937802 0 0 0
-6.9296646 0.29931021 -1.7533478 0 0 0
-6.6605377 0.32078922 -1.6940204 0 0 0
-6.2314558 0.22381353 -1.6285698 0 0 0
-5.87922 0.21214402 -1.7259613 0 0 0
-5.5792475 0.34476554 -1.6731877 0 0 0
-4.8914557 0.23743892 -1.6366364 0 0 0
-4.1600971 0.1919626 -1.7731231 0 0 0
-2.6199498 0.17294109 -1.7178907 0 0 0
-2.3551397 0.23828757 -1.6308023 0 0 0
-2.0294175 0.31082833 -1.6507674 0 0 0
-1.6896825 0.23595881 -1.6796507 0 0 0
-1.3070118 0.30933475 -1.6182386 0 0 0
-0.96999651 0.28501332 -1.6606251 0 0 0
-0.67838323 0.35639441 -1.6630043 0 0 0
-0.044908762 0.44598579 -1.5820946 0 0 0
-7.5223904 0.65329778 -1.8019872 0 0 0
-7.3025227 0.64741355 -1.7028561 0 0 0
-6.9324322 0.58315229 -1.6725807 0 0 0
-6.6060257 0.66514581 -1.6694928 0 0 0
-6.1840296 0.77560639 -1.6366453 0 0 0
-5.9802723 0.68949819 -1.6216758 0 0 0
-5.4117661 0.50867057 -1.8140014 0 0 0
-5.1949768 0.56967419 -1.7285907 0 0 0
-4.8312063 0.66060525 -1.7202669 0 0 0
-4.5076466 0.73054361 -1.7164522 0 0 0
-4.2813368 0.70605683 -1.7855133 0 0 0
-3.821506 0.67515182 -1.5645914 0 0 0
-1.9192288 0.49021459 -1.7076149 0 0 0
-1.6136273 0.51585507 -1.6026247 0 0 0
-1.3457755 0.627877 -1.6526726 0 0 0
-0.98764491 0.54624194 -1.5971476 0 0 0
-0.57034636 0.59494412 -1.654232 0 0 0
-0.27946931 0.6661917 -1.6548927 0 0 0
0.056353211 0.70431447 -1.667891 0 0 0
0.39434505 0.69057786 -1.6523894 0 0 0
0.79796815 0.77931881 -1.5417045 0 0 0
1.8485496 0.69552135 -1.528891 0 0 0
-7.8288898 1.0286237 -1.8136072 0 0 0
-7.5857916 1.0041277 -1.6815108 0 0 0
-7.3897142 1.0021679 -1.7934074 0 0 0
-6.8975477 0.9788962 -1.6567718 0 0 0
-6.6119709 0.9431935 -1.7162874 0 0 0
-6.2283297 0.9919197 -1.7032583 0 0 0
-5.9720526 0.98830879 -1.6614468 0 0 0
-4.7976561 0.87904787 -1.7949289 0 0 0
-4.5064564 0.90507585 -1.7150918 0 0 0
-4.2033567 1.0247425 -1.6066965 0 0 0
-3.8882172 0.83129358 -1.56893 0 0 0
-1.5162385 0.85919571 -1.58293 0 0 0
-1.3287808 0.92270178 -1.6448005 0 0 0
-1.0158366 1.0041221 -1.6624585 0 0 0
-0.60919046 0.94720554 -1.5849152 0 0 0
-0.2680915 0.99134362 -1.5716939 0 0 0
0.11326742 0.90913123 -1.6599101 0 0 0
0.38828099 1.0097622 -1.7050136 0 0 0
0.74891877 1.0034208 -1.655511 0 0 0
1.0666559 1.0450583 -1.6899498 0 0 0
1.705693 1.1151714 -1.5738281 0 0 0
2.0142953 1.1529994 -1.6127495 0 0 0
-7.873806 1.3041019 -1.8571209 0 0 0
-7.6472387 1.3496284 -1.7567339 0 0 0
-7.3350925 1.3820587 -1.6767704 0 0 0
-6.8561802 1.3043922 -1.5417379 0 0 0
-6.7164955 1.1709337 -1.8441681 0 0 0
-6.2335806 1.290743 -1.7589684 0 0 0
-6.0317106 1.2130923 -1.8375915 0 0 0
-5.5855761 1.4640517 -1.6415924 0 0 0
-1.9346869 1.4038283 -1.6238102 0 0 0
-1.6362942 1.3057312 -1.561232 0 0 0
-1.4597908 1.2672211 -1.5737391 0 0 0
-1.0281037 1.2809167 -1.6759018 0 0 0
-0.63999635 1.4141779 -1.5787662 0 0 0
-0.2517674 1.3568243 -1.6028587 0 0 0
0.090544581 1.3690114 -1.6378566 0 0 0
0.3839556 1.3692611 -1.5871028 0 0 0
0.61989522 1.2307558 -1.5384811 0 0 0
0.98264909 1.2565157 -1.7258028 0 0 0
1.8716629 1.2143266 -1.6779217 0 0 0
2.1471117 1.3715787 -1.6616594 0 0 0
2.4309213 1.4389915 -1.6595138 0 0 0
-7.6124353 1.6767355 -1.7171491 0 0 0
-7.3661804 1.7048365 -1.741497 0 0 0
-6.7867756 1.5810218 -1.5280555 0 0 0
-6.2042837 1.6567057 -1.7869108 0 0 0
-1.978929 1.6002251 -1.7186861 0 0 0
-0.59115666 1.5574877 -1.6071914 0 0 0
-0.32654184 1.5559057 -1.6789726 0 0 0
0.064795732 1.5226278 -1.7549213 0 0 0
4.5222549 1.6826615 -1.5564712 0 0 0
-7.8597383 2.1229522 -1.823172 0 0 0
-7.6434107 2.0460126 -1.7100871 0 0 0
-7.3410091 2.0429337 -1.7438526 0 0 0
-7.0420313 1.9975339 -1.7258195 0 0 0
-7.8843212 2.3746567 -1.6814204 0 0 0
-7.6425457 2.305407 -1.6712074 0 0 0
-7.3102169 2.3221917 -1.6511016 0 0 0
-6.2311153 2.5319719 -1.8716148 0 0 0
-7.898983 2.7644258 -1.7640545 0 0 0
-7.5824461 2.7781272 -1.7422849 0 0 0
-7.0825958 2.8944178 -1.8426346 0 0 0
-6.1763773 2.7800307 -1.8451529 0 0 0
-7.9143839 3.0138707 -1.8397379 0 0 0
-7.5810566 3.1208837 -1.6744437 0 0 0
-7.4307766 3.1007357 -1.7989486 0 0 0
-6.9316769 3.0823555 -1.7732972 0 0 0
-6.5210571 3.147434 -1.5898758 0 0 0
-6.2556295 3.1316109 -1.6879809 0 0 0
-6.0068359 2.9600635 -1.7432312 0 0 0
-7.523056 3.3681953 -1.6203527 0 0 0
-7.3884268 3.404067 -1.858519 0 0 0
-6.801034 3.3913288 -1.8312681 0 0 0
-6.5057964 3.2725577 -1.543589 0 0 0
-6.2632122 3.3612933 -1.6168798 0 0 0
-7.815218 3.8911338 -1.5482582 0 0 0
-7.5879049 3.8578706 -1.7906607 0 0 0
-7.4436569 3.9493594 -1.7696899 0 0 0
-7.8643332 4.258153 -1.7199901 0 0 0
-7.5923529 4.1231079 -1.6883774 0 0 0
-7.4146519 4.1621284 -1.731652 0 0 0
-7.8953981 4.4580951 -1.7532948 0 0 0
-7.6087704 4.5101395 -1.6451457 0 0 0
-7.3909655 4.482481 -1.7123699 0 0 0
-6.4117165 4.5266638 -1.8716148 0 0 0
-6.2863226 4.6062908 -1.7628324 0 0 0
-6.0067654 4.5105639 -1.8059505 0 0 0
-7.8560257 4.8484292 -1.7820641 0 0 0
-7.6371984 4.8268638 -1.7025095 0 0 0
-7.4002924 4.8607817 -1.7174976 0 0 0
-6.3172369 4.8228059 -1.7926522 0 0 0
-5.9630165 4.9432201 -1.7759918 0 0 0
-7.8326464 5.2798147 -1.7652801 0 0 0
-7.5807734 5.1290193 -1.6066645 0 0 0
-7.3563843 5.1890268 -1.7029397 0 0 0
-6.8271589 5.2568521 -1.7731136 0 0 0
-6.6790237 5.2720976 -1.7261431 0 0 0
-6.2665968 5.1815987 -1.8343126 0 0 0
-5.9850159 5.1447878 -1.8290727 0 0 0
-7.8387356 5.4245529 -1.8126739 0 0 0
-7.5933027 5.57657 -1.6854815 0 0 0
-7.3173676 5.572917 -1.7392607 0 0 0
-6.8551855 5.5348296 -1.8298793 0 0 0
-6.6404829 5.5396681 -1.7526822 0 0 0
-6.1861506 5.5215502 -1.7795788 0 0 0
-7.5785589 5.8833065 -1.6890861 0 0 0
-7.3547201 5.8723245 -1.6984341 0 0 0
-6.6203461 5.9252729 -1.7701623 0 0 0
-6.1100521 5.8397045 -1.6637815 0 0 0
-7.5466042 6.2384534 -1.639931 0 0 0
-7.3118963 6.2541046 -1.6981401 0 0 0
-6.6667843 6.1813583 -1.7542275 0 0 0
-6.1564035 6.3005466 -1.823253 0 0 0
-5.9796772 6.3829937 -1.8198112 0 0 0
-7.5706329 6.5445037 -1.6329159 0 0 0
-7.2957716 6.5813746 -1.6618801 0 0 0
-7.1012154 6.5629911 -1.6361336 0 0 0
-6.6863956 6.4718308 -1.7961525 0 0 0
-6.1442232 6.5262375 -1.6789249 0 0 0
-5.924983 6.5779138 -1.7462969 0 0 0
-7.4710264 6.8227687 -1.5313419 0 0 0
-7.2553759 6.9183073 -1.6720399 0 0 0
-6.2323904 6.9379506 -1.5947044 0 0 0
-5.8655367 6.8833675 -1.6984695 0 0 0
-7.561677 7.3133101 -1.6701232 0 0 0
-7.2929296 7.2664742 -1.700049 0 0 0
-6.1279373 7.3077116 -1.7961514 0 0 0
-5.8608055 7.2726612 -1.7916954 0 0 0
-7.5005474 7.6577969 -1.6618533 0 0 0
-7.3091393 7.669796 -1.7387799 0 0 0
-6.1680822 7.6325345 -1.7624816 0 0 0
-5.8909693 7.670157 -1.8197601 0 0 0
-5.690156 7.5792656 -1.6611198 0 0 0
-7.491827 8.0098848 -1.6435415 0 0 0
-7.2849483 8.0046215 -1.6666615 0 0 0
-6.4919367 8.1595659 -1.7447017 0 0 0
-6.1144962 7.8483734 -1.8690895 0 0 0
-5.8673496 8.0098991 -1.8008246 0 0 0
-5.6745243 7.9910011 -1.7002968 0 0 0
-7.5142412 8.2794647 -1.6998867 0 0 0
-7.2515736 8.3555927 -1.6517701 0 0 0
-7.0916033 8.3777695 -1.5925443 0 0 0
-6.4968367 8.3233862 -1.8187151 0 0 0
-6.0639286 8.2742844 -1.8534393 0 0 0
-5.8459978 8.3153114 -1.78807 0 0 0
-5.69067 8.3812046 -1.6978719 0 0 0
-7.4631863 8.703248 -1.6607708 0 0 0
-7.2431402 8.6783829 -1.6177624 0 0 0
-7.0603857 8.7033253 -1.6517414 0 0 0
-6.491293 8.7246304 -1.7603405 0 0 0
-6.0877571 8.5553036 -1.8608307 0 0 0
-5.7790871 8.6603527 -1.7856672 0 0 0
-5.6797962 8.5390215 -1.6239532 0 0 0
-7.4544373 8.8728514 -1.6814903 0 0 0
-7.2452059 9.0640821 -1.6827438 0 0 0
-7.0504618 8.9622927 -1.6375697 0 0 0
-6.4834862 9.0520229 -1.743463 0 0 0
-6.3246365 9.0704403 -1.8599209 0 0 0
-5.7298117 8.9544334 -1.828422 0 0 0
-5.635416 9.2024822 -1.8333877 0 0 0
-7.5085459 9.5365009 -1.827021 0 0 0
-7.2008104 9.3874779 -1.6773381 0 0 0
-7.0685854 9.4594812 -1.6817837 0 0 0
-6.4363842 9.2864456 -1.6698707 0 0 0
-6.3421249 9.4310875 -1.7846127 0 0 0
-5.8027916 9.4941101 -1.7700782 0 0 0
-5.6248465 9.4296074 -1.7764583 0 0 0
-7.4831638 9.7530823 -1.8037949 0 0 0
-7.2241669 9.7313633 -1.6752775 0 0 0
-7.0433836 9.7481689 -1.6773053 0 0 0
-6.5853157 9.9090481 -1.8034347 0 0 0
-6.2680769 9.8079834 -1.7300994 0 0 0
-5.7999973 9.7435131 -1.8080188 0 0 0
-5.6109867 9.7168617 -1.6992992 0 0 0
-7.2215118 10.090382 -1.6908753 0 0 0
-7.0406818 10.086012 -1.6844294 0 0 0
-6.4332771 10.075647 -1.7936348 0 0 0
-6.1778612 10.034889 -1.7056271 0 0 0
-5.8676767 10.097445 -1.8094451 0 0 0
-5.6180925 10.123249 -1.7208132 0 0 0
-7.4629765 10.482376 -1.5804123 0 0 0
-7.2174025 10.436567 -1.6579418 0 0 0
-7.0147104 10.447897 -1.6587331 0 0 0
-6.0758572 10.329077 -1.7808899 0 0 0
-5.9582491 10.433641 -1.7732871 0 0 0
-5.6482582 10.432213 -1.7973603 0 0 0
-7.2247677 10.797165 -1.6696639 0 0 0
-7.0019789 10.800753 -1.6669123 0 0 0
-5.9106903 10.759394 -1.7672974 0 0 0
-5.6540365 10.722755 -1.8134426 0 0 0
-7.2045851 11.108963 -1.6213865 0 0 0
-6.9808588 11.144444 -1.6296432 0 0 0
-5.906064 11.14118 -1.7880695 0 0 0
-5.6393366 11.09811 -1.8193598 0 0 0
-7.1521301 11.499182 -1.6295986 0 0 0
-6.9575911 11.47147 -1.6295351 0 0 0
-5.8632231 11.481266 -1.7540582 0 0 0
-5.5957956 11.545885 -1.8702129 0 0 0
-7.1780176 11.872221 -1.7297841 0 0 0
-6.9316435 11.859001 -1.6839079 0 0 0
-5.8629255 11.858173 -1.745402 0 0 0
-7.1858044 12.142195 -1.7889137 0 0 0
-6.920887 12.176762 -1.6600976 0 0 0
-5.8520155 12.183111 -1.7610211 0 0 0
-5.6553249 12.213448 -1.5701634 0 0 0
-7.1645317 12.510275 -1.7849516 0 0 0
-6.8852491 12.534611 -1.6293418 0 0 0
-6.7394562 12.473875 -1.5421203 0 0 0
-5.8006401 12.549448 -1.7102097 0 0 0
-5.6236811 12.569101 -1.5710554 0 0 0
-5.2170963 12.707815 -1.6116356 0 0 0
-7.1376638 12.845064 -1.8352582 0 0 0
-6.8971386 12.878838 -1.7025173 0 0 0
-6.7362366 12.990505 -1.6222717 0 0 0
-5.7884369 12.889368 -1.6951414 0 0 0
-5.6426964 12.836197 -1.6041639 0 0 0
-5.1942759 12.781456 -1.5615848 0 0 0
-7.1436367 13.240236 -1.8122047 0 0 0
-6.898735 13.221853 -1.7121871 0 0 0
-6.726243 13.261169 -1.6729777 0 0 0
-5.7874966 13.234625 -1.6621687 0 0 0
-5.6227503 13.264011 -1.6384165 0 0 0
-5.298913 13.277868 -1.6666794 0 0 0
-7.1173162 13.46867 -1.8196714 0 0 0
-6.8898993 13.592176 -1.6766647 0 0 0
-6.6257172 13.609625 -1.7016009 0 0 0
-5.7680387 13.619339 -1.8156724 0 0 0
-5.571207 13.546385 -1.6222323 0 0 0
-5.2080297 13.603222 -1.6264462 0 0 0
-6.8875351 13.928032 -1.6968009 0 0 0
-6.600646 13.93726 -1.6566504 0 0 0
