ply
format ascii 1.0
comment PCL generated
element vertex 1280
property float x
property float y
property float z
property uchar red
property uchar green
property uchar blue
element camera 0
property float view_px
property float view_py
property float view_pz
property float x_axisx
property float x_axisy
property float x_axisz
property float y_axisx
property float y_axisy
property float y_axisz
property float z_axisx
property float z_axisy
property float z_axisz
property float focal
property float scalex
property float scaley
property float centerx
property float centery
property int viewportx
property int viewporty
property float k1
property float k2
end_header
13.725555 -4.1321602 -10.224859 0 0 0
16.358871 -4.1580067 -10.109249 0 0 0
13.260082 -3.3878272 -10.277192 0 0 0
12.927975 -2.9288702 -10.102217 0 0 0
13.231878 -3.0361314 -10.250215 0 0 0
13.473625 -3.0799646 -10.212977 0 0 0
12.986948 -2.7148986 -10.109623 0 0 0
13.174507 -2.7485261 -10.114347 0 0 0
13.509956 -2.7807908 -10.305082 0 0 0
12.999212 -2.3800802 -10.088897 0 0 0
13.208115 -2.3666387 -10.136979 0 0 0
13.250172 -2.0298266 -10.132053 0 0 0
13.436316 -2.0175748 -10.323141 0 0 0
12.655815 -1.7372855 -10.030539 0 0 0
12.749615 -1.5857705 -10.28562 0 0 0
13.220749 -1.7865907 -10.060501 0 0 0
13.395994 -1.8528303 -10.325384 0 0 0
12.825663 -1.3215845 -10.121372 0 0 0
12.870529 -1.1022027 -10.225141 0 0 0
12.629742 -0.17017092 -10.177578 0 0 0
12.542463 -0.0035651028 -10.033992 0 0 0
12.531916 0.75073171 -10.232771 0 0 0
12.462055 1.0496691 -10.15122 0 0 0
16.579037 -6.0748005 -9.9258175 0 0 0
16.500465 -5.7943583 -9.8187771 0 0 0
16.62541 -5.8487701 -9.9164753 0 0 0
16.447233 -5.5311818 -9.8768663 0 0 0
16.631311 -5.5584807 -9.9320078 0 0 0
16.463787 -5.1354146 -9.8717813 0 0 0
16.414322 -4.8412852 -9.7915068 0 0 0
16.595919 -4.8457317 -9.9080667 0 0 0
16.386581 -4.5070806 -9.8062363 0 0 0
16.608938 -4.4957142 -9.847517 0 0 0
16.322994 -4.1389322 -9.7674294 0 0 0
16.621866 -4.1501589 -9.7788486 0 0 0
16.163712 -3.8033395 -9.6844053 0 0 0
16.313143 -3.8608737 -9.7124681 0 0 0
16.683102 -3.8151584 -9.8501043 0 0 0
16.188435 -3.5004005 -9.6690655 0 0 0
15.844875 -3.0413923 -9.6455364 0 0 0
12.78303 -2.6751311 -9.7812433 0 0 0
13.061396 -2.5921547 -9.9535427 0 0 0
12.85449 -2.377079 -9.8094368 0 0 0
13.047861 -2.4186714 -9.9186811 0 0 0
12.66861 -1.9744908 -9.7893505 0 0 0
12.862423 -2.0393829 -9.8119192 0 0 0
13.089886 -2.115365 -9.9604015 0 0 0
12.629467 -1.7308261 -9.6809597 0 0 0
12.813051 -1.7090948 -9.6899834 0 0 0
13.133215 -1.6510818 -9.9063625 0 0 0
12.674574 -1.3877307 -9.8474178 0 0 0
12.904604 -1.3604929 -9.8673315 0 0 0
12.983601 -1.1357064 -9.8355665 0 0 0
12.515676 -0.70115232 -9.6312618 0 0 0
13.062748 -0.70345587 -9.7256222 0 0 0
12.569574 -0.34441841 -9.7740583 0 0 0
12.500835 0.0930143 -9.8371458 0 0 0
12.865023 0.14855875 -9.7142801 0 0 0
12.412006 0.32320994 -9.6799126 0 0 0
12.913206 0.35906041 -9.7577496 0 0 0
12.458136 0.8446995 -9.910841 0 0 0
12.308056 1.0872775 -9.724638 0 0 0
12.41946 1.0850095 -9.852602 0 0 0
12.140102 1.485232 -9.7237988 0 0 0
12.021194 1.7704073 -9.6365795 0 0 0
16.441023 -5.5678773 -9.480732 0 0 0
16.494474 -4.7144556 -9.6185207 0 0 0
16.334787 -4.4246359 -9.5258055 0 0 0
16.14341 -4.0611744 -9.4738169 0 0 0
16.337925 -4.1442494 -9.47929 0 0 0
16.581974 -3.9728127 -9.6155758 0 0 0
16.129011 -3.7442219 -9.4347906 0 0 0
16.320492 -3.784801 -9.443265 0 0 0
16.591564 -3.8553386 -9.5438995 0 0 0
16.117153 -3.4522681 -9.4091825 0 0 0
16.406513 -3.4902174 -9.407361 0 0 0
16.597094 -3.3271785 -9.4869213 0 0 0
16.002142 -3.1213326 -9.443696 0 0 0
16.021135 -2.8697705 -9.3837404 0 0 0
12.646366 -2.3757567 -9.5568485 0 0 0
12.656796 -2.0419538 -9.5803938 0 0 0
12.800156 -1.8954231 -9.5711651 0 0 0
12.602406 -1.6200229 -9.5239334 0 0 0
12.839371 -1.6419209 -9.5272045 0 0 0
12.523186 -1.3076885 -9.4451494 0 0 0
12.827543 -1.3506843 -9.4909172 0 0 0
12.558142 -0.96372306 -9.4325113 0 0 0
12.765425 -0.96339464 -9.4331484 0 0 0
12.566679 -0.63427818 -9.4114017 0 0 0
12.81636 -0.64642698 -9.4350033 0 0 0
12.536985 -0.31739634 -9.4025726 0 0 0
12.780914 -0.31721032 -9.3627872 0 0 0
12.529158 0.035012767 -9.4273729 0 0 0
12.802675 0.0047918707 -9.5019846 0 0 0
12.328634 0.49703753 -9.5783443 0 0 0
12.494661 0.36931232 -9.3632841 0 0 0
12.726864 0.28406942 -9.518774 0 0 0
12.211174 0.79210144 -9.3718977 0 0 0
12.54854 0.64587498 -9.3307838 0 0 0
12.29789 1.1115367 -9.412385 0 0 0
12.105753 1.4954334 -9.4255428 0 0 0
12.394995 1.3493575 -9.3161221 0 0 0
11.963795 1.8824285 -9.4700146 0 0 0
12.051714 1.6871072 -9.5051184 0 0 0
16.212236 -4.3444567 -8.957159 0 0 0
16.236649 -4.1534443 -9.1081324 0 0 0
16.178495 -3.6658554 -9.1796551 0 0 0
16.27355 -3.7533345 -9.1640797 0 0 0
16.11904 -3.3952694 -9.1249008 0 0 0
16.293261 -3.4179311 -9.1142845 0 0 0
16.069809 -3.084065 -9.0737848 0 0 0
16.314991 -3.0956061 -9.0570583 0 0 0
16.006361 -2.7722239 -9.0333166 0 0 0
16.340113 -2.8199112 -9.0380926 0 0 0
15.952143 -2.3884165 -8.9808769 0 0 0
15.971716 -2.1054866 -9.0123196 0 0 0
12.355656 -0.84230888 -9.257597 0 0 0
12.754934 -0.90967214 -9.2323303 0 0 0
12.21155 -0.5806545 -9.1097136 0 0 0
12.358595 -0.75826275 -9.2629223 0 0 0
12.798101 -0.62386543 -9.1973066 0 0 0
12.174551 -0.2767846 -9.0970211 0 0 0
12.581774 -0.27179873 -9.2157221 0 0 0
12.734354 -0.28649247 -9.1862192 0 0 0
12.564507 0.054742455 -9.1206264 0 0 0
12.740234 -0.026002571 -9.1790257 0 0 0
12.327656 0.54355955 -9.132021 0 0 0
12.496895 0.41112626 -9.0964499 0 0 0
12.248775 0.76087338 -9.1301489 0 0 0
12.43903 0.75226158 -9.0567751 0 0 0
12.245483 1.1190872 -9.0940456 0 0 0
12.415051 1.0352693 -9.0818644 0 0 0
12.152941 1.466886 -9.1149626 0 0 0
11.891262 1.8390789 -9.0875521 0 0 0
12.033836 1.7677834 -9.0863008 0 0 0
11.831797 2.0342753 -9.0876427 0 0 0
11.996414 2.0307655 -8.9540768 0 0 0
16.228615 -4.3687677 -8.8040714 0 0 0
16.244085 -4.1239214 -8.8370399 0 0 0
16.286226 -3.8169994 -8.8044195 0 0 0
16.2794 -3.4499106 -8.7208042 0 0 0
16.099083 -2.9896133 -8.8611345 0 0 0
16.244596 -3.0540845 -8.8258619 0 0 0
16.048328 -2.7141895 -8.8197994 0 0 0
16.27903 -2.7189231 -8.8241892 0 0 0
15.993414 -2.3988369 -8.7494793 0 0 0
16.245119 -2.4038603 -8.7283916 0 0 0
15.7887 -2.0344076 -8.6327095 0 0 0
15.901276 -2.0904069 -8.7426176 0 0 0
16.257515 -2.0636561 -8.7119408 0 0 0
15.829546 -1.7989255 -8.803091 0 0 0
15.721395 -1.3079686 -8.6905499 0 0 0
12.653763 0.10746644 -8.7550917 0 0 0
12.690535 -0.07679449 -8.7481441 0 0 0
12.585464 0.3813765 -8.6802731 0 0 0
12.492504 0.87288845 -8.86693 0 0 0
12.286636 1.1494739 -8.7958488 0 0 0
12.413691 1.0917639 -8.7651291 0 0 0
12.180021 1.465958 -8.8188086 0 0 0
12.385336 1.434314 -8.726861 0 0 0
11.848808 1.8876342 -8.7431469 0 0 0
12.112291 1.7814758 -8.7623768 0 0 0
11.582855 2.2488017 -8.6066036 0 0 0
11.826355 2.1956956 -8.7685204 0 0 0
12.132635 2.1145387 -8.8152838 0 0 0
11.612955 2.3702798 -8.6275997 0 0 0
11.799623 2.3967278 -8.606576 0 0 0
12.020914 2.3672414 -8.6028194 0 0 0
11.442505 2.9009075 -8.7093601 0 0 0
11.386776 3.1512654 -8.7328396 0 0 0
16.185774 -2.9743114 -8.4989452 0 0 0
16.03742 -2.6262362 -8.5192394 0 0 0
15.834515 -2.2439184 -8.5681057 0 0 0
16.00886 -2.3630848 -8.4672194 0 0 0
16.217834 -2.3207941 -8.5658627 0 0 0
15.795887 -1.9662091 -8.39575 0 0 0
16.02047 -2.0603254 -8.395606 0 0 0
15.731792 -1.7487746 -8.2967424 0 0 0
16.023441 -1.7253625 -8.3782454 0 0 0
16.20842 -1.6967325 -8.4434662 0 0 0
15.672171 -1.3021274 -8.3801918 0 0 0
16.034889 -1.3960209 -8.2982502 0 0 0
16.196695 -1.4927378 -8.4064007 0 0 0
15.601345 -1.1340613 -8.328207 0 0 0
12.618856 0.17955936 -8.5524197 0 0 0
12.257236 1.2178905 -8.3349323 0 0 0
12.410324 1.1992074 -8.4549809 0 0 0
12.198483 1.4966352 -8.38309 0 0 0
12.371334 1.3242834 -8.4593906 0 0 0
11.903875 1.8896174 -8.5156431 0 0 0
12.123833 1.845822 -8.4957724 0 0 0
11.565269 2.2336309 -8.3733044 0 0 0
11.807665 2.0956936 -8.338131 0 0 0
12.033236 2.0006933 -8.2694759 0 0 0
11.490829 2.4970994 -8.4240093 0 0 0
11.747993 2.5269394 -8.4116573 0 0 0
11.420618 2.8446116 -8.3906679 0 0 0
11.246714 3.3207674 -8.3343029 0 0 0
11.340609 3.1385345 -8.3660107 0 0 0
10.708975 4.2731481 -8.2832499 0 0 0
15.768614 -1.9783202 -8.1456947 0 0 0
15.907192 -1.9829232 -8.1674824 0 0 0
15.704597 -1.6644787 -8.051713 0 0 0
15.959242 -1.6729503 -8.0845547 0 0 0
15.458055 -1.2218755 -8.1020412 0 0 0
15.641291 -1.3472115 -8.0571213 0 0 0
15.971869 -1.3619409 -8.0371151 0 0 0
15.425451 -1.01668 -7.9353151 0 0 0
15.571104 -1.1261971 -8.0724316 0 0 0
15.966814 -1.0167779 -8.0380592 0 0 0
15.310495 -0.74827176 -8.0030613 0 0 0
15.956945 -0.81047368 -8.0029202 0 0 0
12.296364 1.2008209 -8.1647606 0 0 0
12.270517 1.4568564 -8.1737204 0 0 0
11.123964 1.8951923 -8.0529289 0 0 0
12.192974 1.7138267 -8.1533527 0 0 0
11.151281 2.0501485 -8.0820208 0 0 0
11.84182 2.2491531 -8.1038246 0 0 0
12.071735 2.0014496 -8.1514568 0 0 0
11.233696 2.4995134 -8.0782661 0 0 0
11.467363 2.5248649 -8.0612402 0 0 0
11.74995 2.5228374 -8.046834 0 0 0
11.161596 2.8106439 -8.0071516 0 0 0
11.474895 2.8424263 -8.0514612 0 0 0
11.724497 2.7947204 -8.0045357 0 0 0
11.228432 3.2947092 -8.0680361 0 0 0
11.426693 3.137244 -8.0009918 0 0 0
11.730274 3.0742066 -8.0915356 0 0 0
10.920094 3.6150477 -7.9229107 0 0 0
11.147387 3.551811 -7.9408541 0 0 0
11.364782 3.6131856 -7.9997005 0 0 0
10.682657 4.004014 -8.0122051 0 0 0
10.601175 4.2012138 -8.1518764 0 0 0
10.666414 4.5301924 -8.1015491 0 0 0
15.758804 -2.0228436 -7.7244339 0 0 0
15.428867 -1.5942224 -7.7715702 0 0 0
15.702217 -1.6893359 -7.6946087 0 0 0
15.465055 -1.4710056 -7.8554974 0 0 0
15.682335 -1.3186939 -7.7412844 0 0 0
15.880402 -1.3509799 -7.7244949 0 0 0
15.365234 -0.96728873 -7.7331228 0 0 0
15.611515 -1.0023402 -7.7012606 0 0 0
15.087965 -0.53950864 -7.5661907 0 0 0
15.351309 -0.69565052 -7.6759825 0 0 0
15.626291 -0.67383796 -7.6226177 0 0 0
15.867975 -0.67841804 -7.837656 0 0 0
15.700708 -0.30347043 -7.5840569 0 0 0
14.863474 -0.060050592 -7.5498867 0 0 0
15.743515 -0.05996643 -7.6841412 0 0 0
11.909615 2.1685779 -7.8170376 0 0 0
11.046047 2.5826504 -7.7744427 0 0 0
11.569275 2.6600657 -7.8773403 0 0 0
11.724747 2.5365508 -7.8604717 0 0 0
11.505932 2.9046185 -7.7998695 0 0 0
11.688206 2.8221297 -7.8672619 0 0 0
10.884815 3.3639293 -7.6345806 0 0 0
11.247765 3.2516179 -7.7052803 0 0 0
11.403053 3.1961904 -7.6805859 0 0 0
10.90053 3.5639229 -7.6731815 0 0 0
11.080084 3.5147986 -7.7204618 0 0 0
11.313635 3.4464316 -7.877203 0 0 0
10.874273 3.8570876 -7.65874 0 0 0
11.035385 3.7745636 -7.694849 0 0 0
10.579056 4.1063776 -7.6806393 0 0 0
10.631275 4.252037 -7.7578163 0 0 0
10.633795 4.5210857 -7.811121 0 0 0
15.714254 -1.9005076 -7.3957434 0 0 0
15.667961 -1.6767707 -7.2860022 0 0 0
15.607555 -1.3475504 -7.3812208 0 0 0
15.089855 -0.89792693 -7.3488445 0 0 0
15.308619 -0.98261654 -7.4244957 0 0 0
15.645702 -1.0223948 -7.3499613 0 0 0
15.07905 -0.5983777 -7.3327579 0 0 0
15.329081 -0.61330819 -7.40203 0 0 0
15.538887 -0.62423646 -7.4455452 0 0 0
14.995651 -0.29770947 -7.2792149 0 0 0
15.322004 -0.29969549 -7.3796492 0 0 0
15.56764 -0.28802669 -7.4300499 0 0 0
14.761204 0.1498443 -7.2566509 0 0 0
14.825342 -0.029408202 -7.2876596 0 0 0
15.387775 -0.031181112 -7.2884388 0 0 0
15.591707 0.03480877 -7.3691187 0 0 0
14.707235 0.25741327 -7.2698803 0 0 0
11.245035 3.2540064 -7.3389006 0 0 0
11.451256 3.1456065 -7.4295483 0 0 0
10.835938 3.6045687 -7.3609676 0 0 0
11.08736 3.522316 -7.352397 0 0 0
11.301176 3.4400616 -7.4454403 0 0 0
10.571728 3.9369681 -7.4588346 0 0 0
10.764868 3.9209363 -7.3757401 0 0 0
11.054285 3.8100781 -7.4373569 0 0 0
10.562721 4.314219 -7.2934237 0 0 0
10.718784 4.2432814 -7.2969799 0 0 0
10.472025 4.5056229 -7.3018742 0 0 0
15.658396 -1.5949918 -7.07794 0 0 0
15.470516 -1.2615321 -6.9166584 0 0 0
15.55217 -1.409019 -7.0151157 0 0 0
15.429424 -0.98369753 -6.9572258 0 0 0
15.562635 -1.0126522 -7.0640821 0 0 0
14.971975 -0.49790061 -6.953619 0 0 0
15.363214 -0.59181756 -7.0210009 0 0 0
14.762047 -0.21114562 -6.9479504 0 0 0
14.977766 -0.2667855 -7.0010481 0 0 0
15.202644 -0.32578993 -6.9407234 0 0 0
14.740065 0.086494178 -7.0355673 0 0 0
14.928892 0.0043200403 -6.9833641 0 0 0
15.377625 0.053514406 -6.9626093 0 0 0
15.571594 0.04734315 -7.0962811 0 0 0
14.686666 0.37858123 -6.9537621 0 0 0
14.870523 0.30470997 -7.0054655 0 0 0
15.161535 0.24029125 -6.8929958 0 0 0
14.609234 0.68278223 -6.9478092 0 0 0
11.221375 3.3038766 -7.0109463 0 0 0
11.299076 3.2241259 -7.1168652 0 0 0
10.915615 3.7109756 -7.1577358 0 0 0
11.144993 3.5548937 -7.0843391 0 0 0
10.541117 3.8715928 -6.9998198 0 0 0
10.795439 3.8833394 -7.0138626 0 0 0
11.00749 3.8223872 -7.0598812 0 0 0
10.45451 4.2039123 -6.9658842 0 0 0
10.816147 4.2537203 -7.1458416 0 0 0
10.496735 4.5374742 -6.9903698 0 0 0
10.658575 4.5164409 -7.054142 0 0 0
15.437195 -1.210446 -6.7467022 0 0 0
15.361694 -0.94874418 -6.6877747 0 0 0
14.967636 -0.48772264 -6.7553768 0 0 0
15.328783 -0.61034989 -6.6500845 0 0 0
14.727116 -0.18942465 -6.6838865 0 0 0
14.891499 -0.28306133 -6.6668768 0 0 0
15.255264 -0.27044266 -6.7099676 0 0 0
14.693375 0.069254398 -6.5915689 0 0 0
14.980349 0.10356681 -6.7348452 0 0 0
15.242006 0.084712148 -6.6963224 0 0 0
14.335676 0.38482726 -6.4983425 0 0 0
14.691122 0.45710653 -6.6295071 0 0 0
14.987862 0.37267178 -6.6444502 0 0 0
15.273344 0.40266123 -6.60816 0 0 0
14.359825 0.72810256 -6.6264858 0 0 0
14.618727 0.76060778 -6.6537132 0 0 0
15.010265 0.62781811 -6.4949818 0 0 0
15.279835 0.63185036 -6.5005093 0 0 0
14.341228 1.1292236 -6.4982481 0 0 0
14.582869 0.99596083 -6.5816307 0 0 0
13.204124 1.5222501 -6.5641384 0 0 0
10.430327 4.025075 -6.6784296 0 0 0
10.73139 3.9931676 -6.6398964 0 0 0
10.158424 4.3382192 -6.7209587 0 0 0
10.472024 4.2651305 -6.6994057 0 0 0
10.641768 4.249949 -6.63659 0 0 0
10.126808 4.5080981 -6.7130537 0 0 0
10.465531 4.5806293 -6.7477732 0 0 0
15.316515 -0.91308749 -6.4639759 0 0 0
15.291931 -0.66124243 -6.3289137 0 0 0
14.937988 -0.23950709 -6.3250542 0 0 0
15.225864 -0.30852282 -6.3387051 0 0 0
14.432554 0.16967525 -6.4175625 0 0 0
14.616997 0.15484323 -6.42276 0 0 0
14.947392 0.04865016 -6.3310499 0 0 0
15.258205 0.21938922 -6.267271 0 0 0
14.319237 0.4642702 -6.2927208 0 0 0
14.629131 0.42289948 -6.3480778 0 0 0
14.980822 0.44514823 -6.3290195 0 0 0
15.234837 0.4000802 -6.3203192 0 0 0
14.083605 0.84547627 -6.3092022 0 0 0
14.27128 0.79769266 -6.2786255 0 0 0
14.65255 0.72568041 -6.2461338 0 0 0
14.967768 0.74672341 -6.2719164 0 0 0
15.206429 0.68808895 -6.3040047 0 0 0
14.334505 1.0995973 -6.2746048 0 0 0
14.565702 1.1064255 -6.2934647 0 0 0
14.955549 1.000314 -6.1534033 0 0 0
12.884645 1.5942311 -6.3619099 0 0 0
13.199856 1.5967278 -6.4511137 0 0 0
14.315418 1.3752072 -6.2193279 0 0 0
12.608635 1.9053673 -6.162199 0 0 0
12.7962 1.739717 -6.3219414 0 0 0
13.094505 1.6687253 -6.2851238 0 0 0
10.777184 3.9891486 -6.3453484 0 0 0
10.65583 4.2096624 -6.3084316 0 0 0
10.481803 4.5729413 -6.3627729 0 0 0
14.989794 -0.31021881 -5.986022 0 0 0
15.179314 -0.15921275 -5.8616886 0 0 0
15.060652 0.072364032 -5.9385939 0 0 0
15.183281 0.10977858 -5.9374981 0 0 0
14.303194 0.4205271 -6.1045208 0 0 0
14.684765 0.53730118 -6.0763111 0 0 0
15.024652 0.43970942 -5.9318991 0 0 0
15.177588 0.39454791 -6.0170698 0 0 0
14.003902 0.77280647 -6.0020962 0 0 0
14.310993 0.77864724 -6.0688734 0 0 0
14.603716 0.83385229 -6.0667744 0 0 0
14.997856 0.776963 -5.965415 0 0 0
15.222191 0.8034727 -5.9954624 0 0 0
14.359421 1.1885225 -6.0089016 0 0 0
14.635199 1.1082567 -6.0052185 0 0 0
14.911594 1.0997899 -5.9682188 0 0 0
15.186455 1.0350503 -5.8677807 0 0 0
13.197334 1.5748831 -6.0429211 0 0 0
14.051405 1.5822681 -5.8074398 0 0 0
14.305807 1.4419293 -5.9461927 0 0 0
14.589298 1.3657207 -5.9329195 0 0 0
14.835859 1.3775462 -5.9359951 0 0 0
12.675415 1.9029316 -6.1291637 0 0 0
12.792707 1.8296664 -5.9820185 0 0 0
13.092335 1.6747359 -5.9108992 0 0 0
13.501974 1.8785243 -5.803381 0 0 0
14.081226 1.7546924 -5.8230495 0 0 0
14.355486 1.7698703 -5.9169903 0 0 0
14.477356 1.7508283 -5.8380299 0 0 0
13.176756 2.843955 -5.8071575 0 0 0
14.344683 2.9029772 -5.9560041 0 0 0
14.480434 2.7839701 -6.0232248 0 0 0
10.775755 4.0226898 -5.9681606 0 0 0
10.576115 4.2426257 -5.9641018 0 0 0
10.684568 4.1651964 -5.9543467 0 0 0
10.473774 4.5643597 -6.1148815 0 0 0
8.7734747 6.4305873 -5.9085188 0 0 0
14.865295 -0.34917867 -5.5938015 0 0 0
15.064188 0.37596995 -5.5912333 0 0 0
13.814596 0.67511737 -5.6787777 0 0 0
14.987677 0.8612507 -5.6645937 0 0 0
14.608646 1.1726549 -5.7310829 0 0 0
14.94315 1.0975602 -5.5915985 0 0 0
13.633154 1.6302811 -5.6163387 0 0 0
13.971235 1.5767612 -5.5952806 0 0 0
14.3053 1.5314502 -5.6685371 0 0 0
14.605024 1.4320412 -5.5966511 0 0 0
14.924364 1.3622065 -5.5934315 0 0 0
12.831469 1.786638 -5.5181532 0 0 0
13.5686 1.837092 -5.563715 0 0 0
13.988911 1.8008142 -5.5831079 0 0 0
14.253408 1.7999549 -5.578207 0 0 0
14.511795 1.7450112 -5.6509228 0 0 0
12.576262 2.1830661 -5.5880737 0 0 0
12.807014 2.160454 -5.5084019 0 0 0
13.370794 2.0183611 -5.4991589 0 0 0
13.593115 2.0129571 -5.4557629 0 0 0
13.923555 2.0906971 -5.4997196 0 0 0
14.245956 2.1144323 -5.5258007 0 0 0
12.290415 2.5818052 -5.5298214 0 0 0
12.377682 2.4196479 -5.4803553 0 0 0
12.886953 2.5011978 -5.4660749 0 0 0
13.142153 2.5389116 -5.5611124 0 0 0
13.867374 2.4742362 -5.4976177 0 0 0
14.203516 2.5104623 -5.5906048 0 0 0
12.915516 2.7650371 -5.4959431 0 0 0
13.101364 2.7444081 -5.6430111 0 0 0
13.627089 2.997885 -5.5618801 0 0 0
13.785055 2.8656132 -5.476573 0 0 0
14.260403 2.7321978 -5.7004805 0 0 0
10.682375 4.0339546 -5.6325331 0 0 0
10.569817 4.246902 -5.4616413 0 0 0
10.598656 4.1806679 -5.5604839 0 0 0
8.6976233 6.4919548 -5.7183466 0 0 0
9.0074558 6.4250164 -5.5816221 0 0 0
9.2316399 6.4434872 -5.5456696 0 0 0
8.7144661 6.6139836 -5.614769 0 0 0
9.0061274 6.6350794 -5.5677757 0 0 0
9.2281399 6.5904894 -5.592288 0 0 0
8.7422094 7.191184 -5.5750837 0 0 0
8.9040251 7.0807261 -5.4720745 0 0 0
14.974007 0.57676709 -5.2912617 0 0 0
14.959677 0.76616526 -5.24368 0 0 0
14.901566 1.1380333 -5.2760391 0 0 0
12.679754 1.624863 -5.4157238 0 0 0
12.823465 1.6062118 -5.2947254 0 0 0
13.301144 1.6087351 -5.2204914 0 0 0
13.894993 1.5535218 -5.1973848 0 0 0
14.32283 1.5934962 -5.3500576 0 0 0
14.705683 1.4562967 -5.217556 0 0 0
14.895958 1.3886888 -5.2430172 0 0 0
12.638386 1.8585021 -5.3150778 0 0 0
12.776062 1.8489792 -5.3380623 0 0 0
13.303408 1.7607055 -5.1282053 0 0 0
13.693214 1.8177691 -5.2442951 0 0 0
13.965342 1.8508711 -5.3160734 0 0 0
14.240908 1.8336052 -5.2876968 0 0 0
14.496044 1.7217607 -5.2591991 0 0 0
14.970297 1.7596225 -5.1996784 0 0 0
12.580032 2.1877801 -5.2897272 0 0 0
12.848522 2.2295208 -5.2109718 0 0 0
13.141014 2.2056684 -5.2363224 0 0 0
13.59721 2.1683922 -5.2724915 0 0 0
13.937168 2.1592541 -5.2839231 0 0 0
14.148159 2.1315296 -5.3059759 0 0 0
12.238754 2.6299198 -5.2441273 0 0 0
12.559185 2.4803672 -5.1937685 0 0 0
12.85033 2.4186468 -5.1940536 0 0 0
13.083456 2.466121 -5.2136545 0 0 0
13.634729 2.4721501 -5.1624947 0 0 0
13.831409 2.4444354 -5.3235865 0 0 0
14.102575 2.4010091 -5.2293835 0 0 0
11.846266 2.9664376 -5.1265831 0 0 0
12.152771 2.7779777 -5.1651697 0 0 0
12.514675 2.8563011 -5.1618204 0 0 0
12.901318 2.7694833 -5.2280359 0 0 0
13.619558 2.8367522 -5.2575731 0 0 0
11.53067 3.2960639 -5.2196865 0 0 0
11.661955 3.275785 -5.1124783 0 0 0
12.228474 3.1580367 -5.2044592 0 0 0
12.416204 3.1139219 -5.255537 0 0 0
10.932976 3.9607348 -5.1987209 0 0 0
11.062195 3.8837628 -5.3188457 0 0 0
10.538944 4.1571589 -5.2044945 0 0 0
10.618816 4.1909652 -5.3443203 0 0 0
10.361823 4.517828 -5.1183119 0 0 0
8.8301754 6.1687169 -5.0913448 0 0 0
8.9186554 6.1716008 -5.1509838 0 0 0
8.5967016 6.3931794 -5.1871958 0 0 0
8.9611597 6.4197397 -5.243968 0 0 0
9.2745342 6.4168811 -5.3875866 0 0 0
8.4662447 6.8402271 -5.2019405 0 0 0
8.6683493 6.7740579 -5.2104454 0 0 0
8.9645739 6.6521134 -5.2846041 0 0 0
8.4721251 7.0755248 -5.2292767 0 0 0
8.7022943 7.0086122 -5.2308083 0 0 0
8.8681164 6.9970336 -5.264246 0 0 0
8.415309 7.4133172 -5.2138424 0 0 0
8.0358143 7.6558814 -5.0832195 0 0 0
8.3808451 7.6356235 -5.3037205 0 0 0
14.754976 0.92237103 -4.8268795 0 0 0
14.830154 0.92193711 -4.8218441 0 0 0
14.750252 1.1161592 -4.8090992 0 0 0
14.864992 1.0925763 -4.9451799 0 0 0
12.737576 1.5529872 -5.0332394 0 0 0
14.008972 1.5343839 -4.9435835 0 0 0
14.208975 1.5733384 -4.8867521 0 0 0
14.65852 1.5267481 -4.903986 0 0 0
14.819422 1.4678673 -5.0024862 0 0 0
13.26375 1.8244584 -4.8765259 0 0 0
13.704554 1.783693 -5.0238628 0 0 0
14.006325 1.7052794 -4.9170437 0 0 0
14.31469 1.8399674 -4.8434296 0 0 0
14.610605 1.7034882 -4.847909 0 0 0
14.833889 1.8858279 -4.9055614 0 0 0
12.841141 2.2777514 -5.0398712 0 0 0
13.274155 2.2189231 -4.9683199 0 0 0
13.539719 2.2066686 -4.8320818 0 0 0
13.965376 2.2705851 -5.0239058 0 0 0
14.161997 2.129427 -4.9125395 0 0 0
12.243759 2.59448 -4.8699303 0 0 0
12.505522 2.5814521 -4.9286871 0 0 0
12.843475 2.534621 -4.9896088 0 0 0
13.230356 2.5793061 -4.8369236 0 0 0
13.551542 2.5360553 -4.8469696 0 0 0
13.89122 2.4700959 -4.8662796 0 0 0
11.880247 2.9320762 -4.8354893 0 0 0
12.174326 2.8436725 -4.8601475 0 0 0
12.523121 2.8232014 -4.8805428 0 0 0
12.798441 2.7875679 -4.8530941 0 0 0
13.224285 2.8155096 -4.821188 0 0 0
13.475328 2.7622976 -4.9953442 0 0 0
14.002989 2.7626104 -4.7603817 0 0 0
11.512459 3.2638259 -4.8588362 0 0 0
11.779871 3.1507831 -4.8184662 0 0 0
12.173784 3.2084107 -4.8226566 0 0 0
12.479696 3.11519 -4.9055014 0 0 0
11.206316 3.6006 -4.7985706 0 0 0
11.433065 3.4638197 -4.8331575 0 0 0
12.092035 3.417479 -4.8217068 0 0 0
10.838997 3.952302 -4.8697586 0 0 0
11.029926 3.836632 -4.9640789 0 0 0
10.433701 4.3292379 -4.8823376 0 0 0
10.228775 4.5920367 -4.7904797 0 0 0
10.338647 4.5006313 -4.9159775 0 0 0
8.8046961 6.0829949 -4.9553967 0 0 0
8.8912144 6.0852208 -5.0055218 0 0 0
8.4140158 6.4171748 -4.8590994 0 0 0
8.6522589 6.414557 -4.8395281 0 0 0
8.9219675 6.5037322 -4.8957605 0 0 0
8.4430227 6.6568394 -4.8256035 0 0 0
8.7062063 6.718668 -4.9036312 0 0 0
8.8928022 6.7929635 -4.9801817 0 0 0
8.3577204 7.0383258 -4.7976646 0 0 0
8.6336584 7.0211973 -4.8623085 0 0 0
8.0548439 7.4519 -4.7866316 0 0 0
8.3096495 7.4063873 -4.8965101 0 0 0
8.1057463 7.6181087 -5.0093708 0 0 0
14.040276 1.553351 -4.7257977 0 0 0
14.691277 1.5884211 -4.6346607 0 0 0
13.290041 1.8450497 -4.4715099 0 0 0
13.951096 1.7860733 -4.6934643 0 0 0
14.320576 1.9004873 -4.5590277 0 0 0
14.553171 1.7889656 -4.5508108 0 0 0
12.979496 2.1552184 -4.5180416 0 0 0
13.184595 2.1197729 -4.5400543 0 0 0
13.498194 2.2544882 -4.6301956 0 0 0
14.180391 2.1150997 -4.5395069 0 0 0
14.65679 2.0929251 -4.4462204 0 0 0
11.938175 2.6506009 -4.6352215 0 0 0
12.126335 2.6316314 -4.7185268 0 0 0
12.400175 2.6094899 -4.7068996 0 0 0
13.257891 2.508321 -4.5264082 0 0 0
13.533533 2.5162761 -4.5898905 0 0 0
13.88183 2.4988062 -4.653141 0 0 0
14.114847 2.4142673 -4.4536877 0 0 0
11.816767 2.9377804 -4.5528059 0 0 0
12.15774 2.8840537 -4.6462641 0 0 0
12.42695 2.9060366 -4.658967 0 0 0
12.834642 2.8879802 -4.6668119 0 0 0
13.266459 2.8680818 -4.5315638 0 0 0
13.523361 2.8555851 -4.5061464 0 0 0
13.85578 2.806813 -4.6435728 0 0 0
14.096136 2.8102293 -4.7252407 0 0 0
11.574081 3.2178702 -4.6163673 0 0 0
11.807577 3.2173932 -4.5511837 0 0 0
12.139036 3.1835654 -4.5593863 0 0 0
12.466394 3.159296 -4.5546322 0 0 0
12.924862 3.2406697 -4.5339317 0 0 0
13.176983 3.1288905 -4.4759235 0 0 0
11.1499 3.6275995 -4.5763054 0 0 0
11.457026 3.5453911 -4.5444555 0 0 0
11.816866 3.4731925 -4.4785318 0 0 0
12.046097 3.4458203 -4.4692678 0 0 0
12.608635 3.62222 -4.4691343 0 0 0
12.707054 3.582875 -4.4577694 0 0 0
10.585495 4.0219359 -4.4987164 0 0 0
10.801287 3.9757843 -4.5089512 0 0 0
11.090948 3.8577526 -4.5349331 0 0 0
11.340544 3.7722726 -4.4297571 0 0 0
11.832474 3.9804571 -4.5399799 0 0 0
10.427989 4.268858 -4.5314331 0 0 0
10.754309 4.1204429 -4.441041 0 0 0
11.740215 4.1128216 -4.4990005 0 0 0
10.205349 4.5828776 -4.528882 0 0 0
10.324606 4.5575132 -4.5475368 0 0 0
8.9116535 6.0664611 -4.7041073 0 0 0
8.318244 6.4437308 -4.6145926 0 0 0
8.5887375 6.381464 -4.6400414 0 0 0
8.0809355 6.7479572 -4.471879 0 0 0
8.2906313 6.7131004 -4.5812874 0 0 0
8.6523008 6.7191324 -4.593132 0 0 0
8.0513 7.0704308 -4.5792131 0 0 0
8.2910175 7.0877767 -4.6164961 0 0 0
8.5240889 6.9790511 -4.6892843 0 0 0
7.7752743 7.5590148 -4.4597988 0 0 0
8.001709 7.3863988 -4.5288725 0 0 0
8.2937202 7.3203526 -4.6165495 0 0 0
7.0210953 7.9250731 -4.5209789 0 0 0
7.7122736 7.7381196 -4.4755745 0 0 0
7.9325876 7.6575956 -4.6050053 0 0 0
7.0468559 8.0098982 -4.6055431 0 0 0
14.606855 1.556851 -4.2656231 0 0 0
13.229012 1.7963104 -4.3361816 0 0 0
14.391695 1.9034392 -4.2348986 0 0 0
14.552773 1.8373603 -4.2763805 0 0 0
13.221825 2.1995406 -4.3122063 0 0 0
14.044319 2.2407861 -4.1353502 0 0 0
14.240332 2.106127 -4.2007227 0 0 0
14.540216 2.0844698 -4.2041969 0 0 0
13.024609 2.4791992 -4.153759 0 0 0
13.228516 2.5273972 -4.2331333 0 0 0
13.502699 2.4906909 -4.226819 0 0 0
14.038515 2.4678972 -4.1344805 0 0 0
14.482534 2.6294188 -4.1431255 0 0 0
12.266335 2.9666765 -4.283596 0 0 0
12.95385 2.8761928 -4.1419754 0 0 0
13.222206 2.8818989 -4.2483673 0 0 0
13.488998 2.8038645 -4.2326345 0 0 0
11.508585 3.2286866 -4.3379078 0 0 0
11.877012 3.3042438 -4.3098955 0 0 0
12.181417 3.2532685 -4.1963425 0 0 0
12.530336 3.2485058 -4.1297731 0 0 0
12.855684 3.2266822 -4.1702099 0 0 0
13.235065 3.204179 -4.1967354 0 0 0
13.461624 3.2095199 -4.2451801 0 0 0
11.025234 3.6331 -4.229641 0 0 0
11.530121 3.6199007 -4.1983566 0 0 0
11.775293 3.5315113 -4.2502708 0 0 0
12.114342 3.4559364 -4.1586695 0 0 0
12.545082 3.4385796 -4.0866737 0 0 0
12.819916 3.489959 -4.1145897 0 0 0
13.208073 3.4439025 -4.1459742 0 0 0
13.439177 3.5029807 -4.2010403 0 0 0
10.504576 4.0549688 -4.293478 0 0 0
10.808218 3.939805 -4.1689539 0 0 0
11.143902 3.9473586 -4.2876348 0 0 0
11.409721 3.8221593 -4.1750517 0 0 0
11.869112 3.8727076 -4.1816206 0 0 0
12.133194 3.776607 -4.04603 0 0 0
12.500835 3.7996137 -4.1479969 0 0 0
10.440381 4.3010654 -4.2012138 0 0 0
10.738846 4.2304111 -4.1985378 0 0 0
11.031357 4.1157227 -4.2411222 0 0 0
11.437115 4.120069 -4.0430202 0 0 0
11.888382 4.3196158 -4.1054592 0 0 0
12.042614 4.298604 -4.2780094 0 0 0
10.165738 4.6185026 -4.1992416 0 0 0
10.360588 4.5375896 -4.1449738 0 0 0
10.616714 4.487947 -4.1121807 0 0 0
7.9459343 6.5007834 -4.0819378 0 0 0
8.4272556 6.2987351 -4.3032818 0 0 0
8.6946545 6.4846306 -4.2194214 0 0 0
9.0324764 6.3463001 -4.14361 0 0 0
7.7881565 6.8058295 -4.058279 0 0 0
8.0385418 6.7342415 -4.181798 0 0 0
8.1864204 6.7564964 -4.2349262 0 0 0
8.6371937 6.6405392 -4.2314816 0 0 0
7.369626 7.202106 -4.1059513 0 0 0
7.6499195 7.0715446 -4.0763388 0 0 0
7.9480867 7.0650363 -4.1755733 0 0 0
8.2142096 7.074542 -4.2099724 0 0 0
7.3612604 7.3076625 -4.0482388 0 0 0
7.6696072 7.4380369 -4.1334763 0 0 0
7.9589701 7.3642359 -4.2031441 0 0 0
8.1590614 7.3541903 -4.2161055 0 0 0
6.3385944 7.8956447 -4.0578594 0 0 0
6.4726686 7.8698573 -4.0815229 0 0 0
6.9410152 7.8505301 -4.1290493 0 0 0
7.2108107 7.7918425 -4.1310806 0 0 0
7.6319847 7.6582613 -4.2124205 0 0 0
7.8151741 7.6350398 -4.3408489 0 0 0
6.115015 8.1422405 -4.2969799 0 0 0
6.5552683 7.9706616 -4.1719379 0 0 0
6.8337746 7.9803662 -4.277235 0 0 0
14.444876 1.9382948 -4.0112438 0 0 0
13.996874 2.2783523 -3.8478324 0 0 0
14.276089 2.2027414 -3.8868678 0 0 0
14.477301 2.2033682 -3.9877756 0 0 0
13.001102 2.6143224 -3.8633072 0 0 0
13.239782 2.6249602 -3.7823679 0 0 0
13.432396 2.5464621 -3.8145397 0 0 0
14.007772 2.4744713 -3.8256972 0 0 0
14.295065 2.4383602 -3.7908266 0 0 0
14.490395 2.5200031 -3.9950225 0 0 0
12.919716 2.847255 -3.9373 0 0 0
13.234182 2.8589509 -3.863559 0 0 0
13.422642 2.7735164 -3.9245331 0 0 0
12.161648 3.3405747 -3.8721783 0 0 0
12.480326 3.2253561 -3.9869511 0 0 0
12.957438 3.2680483 -3.9276288 0 0 0
13.228296 3.2149985 -3.9014413 0 0 0
11.081257 3.6834841 -3.9054253 0 0 0
11.465466 3.7049179 -3.9425004 0 0 0
11.846554 3.6309035 -3.8641217 0 0 0
12.176014 3.5571399 -3.8165853 0 0 0
12.515398 3.5693595 -3.8981516 0 0 0
12.850292 3.5338352 -3.8690994 0 0 0
13.204962 3.5364234 -3.8764803 0 0 0
10.847025 3.9603145 -3.87026 0 0 0
11.149183 3.9461217 -3.8147008 0 0 0
11.434282 3.892909 -3.8345697 0 0 0
11.765789 3.7930944 -3.7702549 0 0 0
12.174955 3.8593891 -3.8057787 0 0 0
12.442595 3.7925231 -3.771961 0 0 0
12.808907 3.7358181 -3.7436311 0 0 0
13.201115 3.7833998 -3.8758323 0 0 0
10.216175 4.4127111 -3.8751581 0 0 0
10.460031 4.2948098 -3.8725722 0 0 0
10.743645 4.2354374 -3.8592799 0 0 0
11.068859 4.1724062 -3.752444 0 0 0
11.362677 4.159266 -3.767071 0 0 0
11.859262 4.3215566 -3.8673441 0 0 0
12.011921 4.1429453 -3.8639238 0 0 0
10.157993 4.5939469 -3.8634355 0 0 0
10.411258 4.5584192 -3.8852642 0 0 0
10.631939 4.4914784 -3.8643816 0 0 0
11.223896 4.6272049 -3.7361352 0 0 0
8.6786947 5.9035711 -3.8701227 0 0 0
9.0709763 6.0959449 -3.854574 0 0 0
7.8550739 6.477963 -3.689657 0 0 0
8.743515 6.4855504 -3.9660242 0 0 0
8.9251642 6.2905731 -3.872709 0 0 0
7.7035484 6.805397 -3.8095953 0 0 0
7.9284086 6.7101312 -3.8308399 0 0 0
8.1458549 6.6277957 -3.8347476 0 0 0
7.3629351 7.0946512 -3.765651 0 0 0
7.616004 7.0630679 -3.894017 0 0 0
7.9070625 6.9643722 -3.8866169 0 0 0
7.0162487 7.4738207 -3.7785809 0 0 0
7.28477 7.413415 -3.8229716 0 0 0
7.5518379 7.3710637 -3.8884962 0 0 0
7.9198112 7.4476709 -3.8725832 0 0 0
5.1336155 7.8892198 -3.7743585 0 0 0
6.2835474 7.8152094 -3.7434199 0 0 0
6.5469685 7.8139501 -3.7737987 0 0 0
6.9429874 7.7233291 -3.7813461 0 0 0
7.2568121 7.6662774 -3.7993677 0 0 0
7.5548029 7.6440425 -3.9076684 0 0 0
5.1898956 7.977139 -3.8918207 0 0 0
5.5474081 8.0327463 -3.9055865 0 0 0
5.9061584 7.9843912 -3.8331597 0 0 0
6.3227406 7.9391675 -3.8024328 0 0 0
6.8046551 7.9367347 -3.7394998 0 0 0
14.062744 2.3289931 -3.6132905 0 0 0
14.176611 2.3120673 -3.5745347 0 0 0
13.218092 2.5280335 -3.506758 0 0 0
13.413635 2.5111144 -3.5807397 0 0 0
13.977053 2.5040946 -3.4984171 0 0 0
14.206514 2.5053542 -3.5542619 0 0 0
13.300686 2.8942275 -3.5306814 0 0 0
13.390255 2.7452693 -3.6435983 0 0 0
11.980036 3.3785591 -3.6773355 0 0 0
12.052416 3.3778734 -3.6672571 0 0 0
12.853308 3.3467281 -3.5646622 0 0 0
13.308075 3.1302412 -3.6567953 0 0 0
11.605394 3.6672995 -3.4775116 0 0 0
11.828934 3.6189437 -3.5061481 0 0 0
12.085508 3.5716698 -3.6187656 0 0 0
12.618744 3.635 -3.4887874 0 0 0
12.849989 3.5890284 -3.5190942 0 0 0
13.10063 3.626555 -3.6223743 0 0 0
10.934654 4.0736871 -3.5605829 0 0 0
11.104858 4.0118876 -3.5995786 0 0 0
11.491022 3.9311299 -3.531883 0 0 0
11.824575 3.9118292 -3.5134709 0 0 0
12.146126 3.8997502 -3.5186479 0 0 0
12.528593 3.8297875 -3.5017245 0 0 0
12.859365 3.8468192 -3.4556682 0 0 0
13.070496 3.8233895 -3.5728724 0 0 0
10.42584 4.4024882 -3.6213953 0 0 0
10.791531 4.3167744 -3.5282252 0 0 0
11.10627 4.2422738 -3.5689776 0 0 0
11.455198 4.1686468 -3.5290782 0 0 0
11.750496 4.1226888 -3.4058816 0 0 0
12.044374 4.255899 -3.5116208 0 0 0
10.148503 4.5928102 -3.5743701 0 0 0
10.416306 4.5597653 -3.5002439 0 0 0
10.736942 4.5468535 -3.4484522 0 0 0
11.024427 4.5268703 -3.4072468 0 0 0
11.531336 4.5269914 -3.518544 0 0 0
11.810041 4.6117477 -3.5019209 0 0 0
12.033794 4.4689956 -3.4330399 0 0 0
8.5500355 5.8499932 -3.5849359 0 0 0
9.0095148 6.0277133 -3.5728586 0 0 0
7.7358646 6.5092216 -3.4934843 0 0 0
8.8476734 6.2271667 -3.4835794 0 0 0
7.375226 6.807754 -3.3728387 0 0 0
7.630744 6.7448025 -3.5302818 0 0 0
7.8316956 6.550343 -3.6262414 0 0 0
7.0308542 7.1436219 -3.4447291 0 0 0
7.2241096 7.0761304 -3.5230501 0 0 0
7.5319557 6.9463568 -3.62204 0 0 0
6.309124 7.5342245 -3.4271257 0 0 0
6.6280146 7.4873266 -3.4145982 0 0 0
6.9120741 7.4322052 -3.5314009 0 0 0
7.2098885 7.4500699 -3.5843651 0 0 0
7.5747938 7.5199571 -3.5124748 0 0 0
7.9317961 7.472775 -3.6711786 0 0 0
5.1934309 7.8917179 -3.4687383 0 0 0
5.5696526 7.8608184 -3.5189478 0 0 0
5.8898621 7.8032999 -3.4319851 0 0 0
6.2256098 7.7412615 -3.4724228 0 0 0
6.5652771 7.7102666 -3.4907258 0 0 0
6.8692627 7.6835656 -3.555239 0 0 0
7.3057156 7.6367655 -3.5551736 0 0 0
7.5193548 7.6029682 -3.6032808 0 0 0
4.399931 8.0674047 -3.4970481 0 0 0
4.7557545 7.9864349 -3.3542917 0 0 0
5.5958948 7.9833274 -3.4024522 0 0 0
5.8514652 8.0017719 -3.5291498 0 0 0
6.6485558 7.9692569 -3.4726617 0 0 0
13.289597 2.5792098 -3.2158716 0 0 0
13.68758 2.5034189 -3.1340349 0 0 0
13.907415 2.5355928 -3.2839229 0 0 0
14.091934 2.550179 -3.3014429 0 0 0
13.207554 3.2018371 -3.2670724 0 0 0
11.594196 3.723197 -3.3287408 0 0 0
12.58536 3.6828105 -3.2840459 0 0 0
12.753326 3.6713481 -3.2714784 0 0 0
11.536991 3.9451399 -3.2743471 0 0 0
11.806105 3.9753284 -3.2411005 0 0 0
12.178265 4.013505 -3.1704047 0 0 0
12.519247 3.8999443 -3.147516 0 0 0
12.772499 3.90047 -3.23718 0 0 0
10.827888 4.3833981 -3.3036249 0 0 0
11.168461 4.3544459 -3.2062962 0 0 0
11.450111 4.2624106 -3.166415 0 0 0
11.779221 4.1968632 -3.1497605 0 0 0
12.107212 4.2328787 -3.0802467 0 0 0
12.630056 4.1356373 -3.1163614 0 0 0
10.057649 4.637516 -3.124573 0 0 0
10.445891 4.5856996 -3.2179139 0 0 0
10.769314 4.5351048 -3.1817186 0 0 0
11.121069 4.496973 -3.1517227 0 0 0
11.385681 4.5972843 -3.2611763 0 0 0
8.7949657 5.7833252 -3.0705125 0 0 0
8.8072147 6.1200948 -3.0004404 0 0 0
8.9251499 6.0245309 -3.1833079 0 0 0
6.9992542 6.5215521 -3.1345613 0 0 0
7.5454502 6.4964714 -3.1044886 0 0 0
8.8357754 6.2127194 -3.2614038 0 0 0
8.9348021 6.2032919 -3.1281183 0 0 0
6.9896746 6.6783891 -3.0577981 0 0 0
7.2429752 6.6696253 -3.0945299 0 0 0
7.5596313 6.634336 -3.2157371 0 0 0
6.6588888 7.1591191 -3.0328939 0 0 0
6.9095783 7.0535607 -3.1544273 0 0 0
7.1578474 6.933578 -3.1767991 0 0 0
5.6321554 7.5326252 -3.0086305 0 0 0
5.8783207 7.5253215 -3.0603573 0 0 0
6.2398806 7.4811778 -3.0907099 0 0 0
6.5412169 7.3928289 -3.1311762 0 0 0
6.8036747 7.2790537 -3.257447 0 0 0
4.7894602 7.8897352 -3.0548837 0 0 0
5.1307831 7.815052 -3.1241581 0 0 0
5.5367775 7.7991743 -3.1444776 0 0 0
5.8961897 7.7411189 -3.1542885 0 0 0
6.1194372 7.7292776 -3.1910212 0 0 0
6.554739 7.7275486 -3.1806419 0 0 0
4.2710056 8.1813087 -3.1695611 0 0 0
4.3992748 8.0752115 -3.1516192 0 0 0
4.888896 7.9800367 -3.1809494 0 0 0
5.1604013 8.0228071 -3.1046426 0 0 0
5.642375 7.9731841 -3.1190202 0 0 0
5.8428555 7.9377713 -3.0046365 0 0 0
13.056496 2.9878612 -2.8444803 0 0 0
12.214228 4.007504 -2.8082798 0 0 0
12.478418 3.9726932 -2.8317931 0 0 0
12.717228 3.8850091 -2.8324869 0 0 0
5.420475 4.4154549 -2.7709787 0 0 0
11.266979 4.4120564 -2.9115751 0 0 0
11.464548 4.3519874 -2.8698127 0 0 0
11.812614 4.2585158 -2.8173821 0 0 0
12.157278 4.1546621 -2.7614515 0 0 0
12.445938 4.1621628 -2.7756555 0 0 0
5.2584953 4.4879613 -2.6648614 0 0 0
5.3921604 4.5298948 -2.8340147 0 0 0
9.842701 4.6345081 -2.856334 0 0 0
10.030457 4.6611905 -2.766937 0 0 0
10.426385 4.5576057 -2.8168314 0 0 0
10.783863 4.5371547 -2.7797658 0 0 0
11.13335 4.5514507 -2.7607577 0 0 0
11.469797 4.5625868 -2.8156698 0 0 0
11.767319 4.6120305 -2.7834399 0 0 0
12.049755 4.6618586 -2.8007982 0 0 0
11.569136 4.891665 -2.7496064 0 0 0
11.769304 4.9502239 -2.7657573 0 0 0
8.7762756 5.729383 -2.7873628 0 0 0
10.542585 5.520853 -2.7512414 0 0 0
10.618956 5.4834867 -2.7621667 0 0 0
8.8163157 5.9905396 -2.7413042 0 0 0
8.8559351 5.9815183 -2.8088763 0 0 0
7.0026846 6.4929714 -2.7314966 0 0 0
7.2704639 6.494133 -2.8647807 0 0 0
7.5007353 6.4565296 -2.9263818 0 0 0
6.6283951 6.8502388 -2.7195218 0 0 0
6.9193811 6.7850351 -2.8163812 0 0 0
7.2240953 6.6313176 -2.8669689 0 0 0
5.9156551 7.1786208 -2.7046182 0 0 0
6.2669516 7.1573229 -2.7157762 0 0 0
6.5540667 7.0526519 -2.8029115 0 0 0
6.8079681 6.9558706 -2.9037778 0 0 0
5.182374 7.5411181 -2.7177417 0 0 0
5.5361004 7.4856553 -2.7570636 0 0 0
5.8536081 7.4561529 -2.7986777 0 0 0
6.2012901 7.3630672 -2.8200209 0 0 0
6.4779482 7.3099322 -2.8745992 0 0 0
1.9305973 7.6515975 -2.6360223 0 0 0
3.7985744 7.7999411 -2.7310808 0 0 0
4.8457699 7.7480602 -2.7895272 0 0 0
5.1832638 7.7444768 -2.7450435 0 0 0
5.5162115 7.7407384 -2.7884748 0 0 0
5.8268213 7.7579598 -2.8617971 0 0 0
6.1964483 7.6625314 -2.8661325 0 0 0
6.4242744 7.6800685 -2.9299271 0 0 0
1.7736673 8.1598949 -2.7980363 0 0 0
3.4235859 8.2206688 -2.6483362 0 0 0
4.2074451 8.0943394 -2.7751787 0 0 0
4.5218143 8.0301704 -2.8089197 0 0 0
4.8215551 7.9457674 -2.8779414 0 0 0
5.1173754 7.9625044 -2.8040698 0 0 0
5.5873537 7.9453769 -2.8360441 0 0 0
1.7678237 8.3917542 -2.7217462 0 0 0
1.8533592 8.5006132 -2.8023355 0 0 0
4.537775 8.5138426 -2.6654184 0 0 0
1.8213129 8.9462061 -2.722265 0 0 0
1.847003 8.839469 -2.7837923 0 0 0
1.6852303 9.2149458 -2.6853282 0 0 0
12.513296 3.9927213 -2.5366418 0 0 0
5.1684752 4.3577561 -2.4483521 0 0 0
11.503056 4.3566694 -2.4581945 0 0 0
11.8398 4.3092942 -2.4493272 0 0 0
12.143097 4.2699695 -2.5064347 0 0 0
12.396488 4.2034035 -2.5173256 0 0 0
5.1576948 4.5188379 -2.4546506 0 0 0
9.8829746 4.7014332 -2.5762384 0 0 0
10.009815 4.7208719 -2.566406 0 0 0
10.869415 4.7190943 -2.4457605 0 0 0
11.112383 4.6557083 -2.5031927 0 0 0
11.449585 4.6236982 -2.4461882 0 0 0
11.811642 4.6062889 -2.4618866 0 0 0
12.039185 4.4897318 -2.3952234 0 0 0
10.774355 4.7966704 -2.3547113 0 0 0
11.198864 4.8630605 -2.41524 0 0 0
11.448704 4.8246269 -2.4461372 0 0 0
11.719496 4.8701959 -2.5833809 0 0 0
10.069315 5.4101748 -2.4298275 0 0 0
10.569115 5.3980451 -2.4789445 0 0 0
10.789495 5.3512287 -2.4952395 0 0 0
10.992756 5.3160467 -2.4645188 0 0 0
8.7118292 5.7072492 -2.3920472 0 0 0
8.5776844 6.0717812 -2.3381708 0 0 0
8.8518753 6.0907226 -2.54656 0 0 0
7.0667362 6.5286565 -2.3141611 0 0 0
7.2655354 6.475121 -2.6284616 0 0 0
6.3029156 6.8371673 -2.4046218 0 0 0
6.5024357 6.8131099 -2.5020306 0 0 0
6.915452 6.6304874 -2.4713523 0 0 0
7.1643143 6.5382476 -2.4604623 0 0 0
3.1940556 7.0507874 -2.2916162 0 0 0
12.929516 -0.38977832 -11.254419 0 0 0
5.5712271 7.1560817 -2.307133 0 0 0
5.9059572 7.1258211 -2.3835623 0 0 0
6.1917763 7.0296469 -2.4962533 0 0 0
6.4487743 6.9409008 -2.5718286 0 0 0
1.9302707 7.4849553 -2.4602234 0 0 0
14.819595 -7.1578379 -11.836519 0 0 0
5.1689425 7.4496474 -2.4521067 0 0 0
5.5204802 7.3889012 -2.4870555 0 0 0
5.8709373 7.3090568 -2.5226948 0 0 0
6.0696545 7.3798852 -2.5947244 0 0 0
1.8418789 7.8757224 -2.6036813 0 0 0
3.2228956 7.8759537 -2.3008592 0 0 0
3.3030214 7.8435836 -2.3210657 0 0 0
5.4043779 6.8160071 -2.9861128 0 0 0
5.1413708 7.7162399 -2.5074012 0 0 0
5.5029259 7.7364922 -2.5398967 0 0 0
5.8044167 7.6796565 -2.5144045 0 0 0
1.6767225 8.0634956 -2.3918064 0 0 0
3.228425 8.0271959 -2.3116434 0 0 0
3.3385077 8.0808096 -2.4684684 0 0 0
3.6847086 8.098403 -2.4265497 0 0 0
4.1336565 8.0745869 -2.4050357 0 0 0
4.4005842 8.0914717 -2.5386302 0 0 0
5.163084 8.0106201 -2.4386575 0 0 0
1.7726192 8.4403315 -2.464988 0 0 0
3.3845959 8.2910891 -2.6227167 0 0 0
3.6730661 8.2936163 -2.3721902 0 0 0
4.1576986 8.4110899 -2.36008 0 0 0
4.4151106 8.4273491 -2.5387337 0 0 0
1.7600718 8.8346891 -2.4016902 0 0 0
4.407155 8.681056 -2.4853113 0 0 0
1.7650223 9.1742649 -2.409641 0 0 0
4.941349 4.3734269 -2.1084063 0 0 0
5.0560551 4.4013429 -2.2405221 0 0 0
11.535244 4.3840194 -2.1657469 0 0 0
11.810844 4.3925452 -2.1382716 0 0 0
11.999075 4.3645654 -2.2590005 0 0 0
4.92274 4.5068507 -2.051029 0 0 0
5.0598354 4.5499949 -2.2630594 0 0 0
11.119011 4.6946559 -2.0972507 0 0 0
11.464819 4.5904617 -2.1402056 0 0 0
11.803474 4.5564094 -2.1956604 0 0 0
10.453545 4.9648151 -2.0528505 0 0 0
10.863306 4.8398309 -2.1339428 0 0 0
11.050005 4.8876939 -2.1347811 0 0 0
11.31444 4.825326 -2.1944597 0 0 0
9.4488363 5.424552 -1.9958475 0 0 0
9.7318916 5.3634725 -2.1971667 0 0 0
10.093837 5.3104644 -2.1078217 0 0 0
10.39219 5.2945294 -2.1035297 0 0 0
10.782616 5.2621837 -2.0795753 0 0 0
8.6591301 5.7239614 -2.0284898 0 0 0
9.4094954 5.6418643 -2.0020525 0 0 0
9.5476751 5.4888635 -2.1140954 0 0 0
10.109214 5.518795 -1.9573686 0 0 0
8.6506586 5.9661741 -2.0869033 0 0 0
9.3822651 5.8350134 -2.1062601 0 0 0
6.9312153 6.5186892 -2.1575716 0 0 0
5.6640759 6.825541 -1.9316843 0 0 0
5.9280691 6.8017917 -2.0583503 0 0 0
6.1846104 6.7765322 -2.1543701 0 0 0
6.5782261 6.694715 -2.1175292 0 0 0
6.7408171 6.6704068 -2.1415384 0 0 0
3.1438875 7.1280904 -1.9986475 0 0 0
3.2941551 7.0910602 -2.1022241 0 0 0
4.5288944 7.1987448 -1.985956 0 0 0
4.7515554 7.1986146 -1.9929702 0 0 0
5.2042351 7.188199 -2.0025198 0 0 0
5.5477505 7.0843797 -2.0899365 0 0 0
5.8111029 7.0228071 -2.1681926 0 0 0
6.083025 6.9318433 -2.1293619 0 0 0
2.4061265 7.449779 -1.9898369 0 0 0
2.5434055 7.5414453 -1.9554079 0 0 0
3.1755753 7.571979 -1.9679391 0 0 0
5.0364599 6.5752239 -2.7232292 0 0 0
4.8346672 7.319088 -2.1196821 0 0 0
5.1474476 7.2996864 -2.0732257 0 0 0
5.4774551 7.2663054 -2.1961396 0 0 0
1.8067913 7.7371302 -2.1264188 0 0 0
1.8449826 7.6626668 -2.2013247 0 0 0
2.6811419 7.6331778 -2.003454 0 0 0
3.1017246 7.7155476 -2.1018922 0 0 0
3.4001493 7.6910424 -2.081126 0 0 0
4.107523 7.7036695 -2.1587641 0 0 0
4.4052963 7.6423826 -2.1793911 0 0 0
4.8409681 7.6985707 -2.1798532 0 0 0
5.1349688 7.7842798 -2.1267908 0 0 0
5.3524361 7.856585 -2.1124246 0 0 0
1.7073879 8.160428 -2.0508897 0 0 0
3.2200956 8.0839453 -2.126909 0 0 0
3.7011347 8.1995707 -2.1887186 0 0 0
4.1740198 8.1448765 -2.2326448 0 0 0
1.719213 8.4587927 -2.0459716 0 0 0
4.2161179 8.5097198 -2.2145441 0 0 0
5.2510471 8.5324802 -2.0954249 0 0 0
5.3601351 8.5951967 -2.1411188 0 0 0
1.7282996 8.7969484 -2.0635188 0 0 0
4.2204657 8.6807795 -2.1331422 0 0 0
5.277422 8.8077536 -2.0615456 0 0 0
5.3552704 8.7741451 -2.0971582 0 0 0
1.7471294 9.1166468 -2.133301 0 0 0
4.7619152 4.3842773 -1.6399209 0 0 0
11.829254 4.3913331 -1.8437555 0 0 0
4.545125 4.569469 -1.648813 0 0 0
4.7522087 4.5103331 -1.7547662 0 0 0
9.5399742 4.6342192 -1.5948389 0 0 0
10.014996 4.7693334 -1.6390817 0 0 0
10.435463 4.7161837 -1.7085307 0 0 0
10.959225 4.776207 -1.789932 0 0 0
11.467936 4.5814877 -1.8110201 0 0 0
11.681379 4.4820218 -1.7605293 0 0 0
10.146483 5.0030656 -1.6679485 0 0 0
10.428487 4.9530821 -1.7031391 0 0 0
10.747929 4.9282413 -1.7285044 0 0 0
11.085436 4.8588777 -1.7551401 0 0 0
11.314615 4.842175 -1.8381631 0 0 0
9.0676851 5.4216914 -1.5833623 0 0 0
9.3735552 5.3584971 -1.763582 0 0 0
9.7149525 5.3186431 -1.609771 0 0 0
10.077254 5.2939367 -1.6881196 0 0 0
10.370063 5.2244525 -1.7210538 0 0 0
8.432085 5.7760658 -1.7530382 0 0 0
8.5836649 5.7443624 -1.71962 0 0 0
9.1362753 5.6059418 -1.6688797 0 0 0
9.3456554 5.5923767 -1.7177675 0 0 0
9.6109085 5.5470834 -1.7019165 0 0 0
10.010096 5.5366731 -1.6957815 0 0 0
7.6605101 6.0536461 -1.7102005 0 0 0
7.9522343 6.1105189 -1.5998819 0 0 0
8.262476 6.0359273 -1.6600816 0 0 0
8.6837358 5.9156237 -1.7352397 0 0 0
8.922575 5.8851609 -1.6787012 0 0 0
6.5719738 6.4848084 -1.5973642 0 0 0
7.4329758 6.1878266 -1.59498 0 0 0
7.5341253 6.2721982 -1.7605321 0 0 0
2.4768 6.8519731 -1.6621816 0 0 0
5.1123009 6.8660989 -1.6366651 0 0 0
5.5396223 6.8322921 -1.7389014 0 0 0
5.814477 6.7420568 -1.7805083 0 0 0
6.1766663 6.6720018 -1.752023 0 0 0
6.4544449 6.6486931 -1.8413141 0 0 0
16.691734 -8.1058016 -11.014391 0 0 0
2.4033489 6.8883872 -1.6543405 0 0 0
3.0715923 7.1436195 -1.7058609 0 0 0
3.6308012 6.8656297 -1.8928058 0 0 0
3.7732849 7.1400175 -1.7129314 0 0 0
4.1235771 7.1412373 -1.7412078 0 0 0
4.4643803 7.1089654 -1.7675407 0 0 0
4.8127193 7.1214299 -1.7520506 0 0 0
5.1581106 7.0822349 -1.771755 0 0 0
5.4292459 6.9992313 -1.8268263 0 0 0
5.8408947 6.8872819 -1.8915002 0 0 0
2.0913711 7.4275074 -1.6940038 0 0 0
2.9414406 6.6014447 -2.2228057 0 0 0
3.5654907 6.5679421 -2.4596484 0 0 0
3.3991995 7.3910675 -1.767976 0 0 0
3.7285414 7.4124436 -1.8599179 0 0 0
4.0662346 7.5533714 -1.8367779 0 0 0
4.9318743 7.2704797 -1.9085314 0 0 0
5.1417351 7.260087 -1.8956506 0 0 0
0.76648331 7.824203 -1.6386602 0 0 0
0.84094906 7.8260584 -1.6662405 0 0 0
1.6454659 7.8659897 -1.7061756 0 0 0
2.0598245 7.7096119 -1.6301491 0 0 0
2.34516 7.7831106 -1.6838257 0 0 0
2.6492224 7.7499647 -1.7168152 0 0 0
3.1206808 7.6404629 -1.7654445 0 0 0
3.366396 7.6372404 -1.8037202 0 0 0
4.0355949 7.7033639 -1.7371376 0 0 0
5.1956701 7.8597279 -1.7504499 0 0 0
0.76855469 7.9365668 -1.666517 0 0 0
1.6841598 8.0011492 -1.8235071 0 0 0
2.0865641 8.0626612 -1.6199977 0 0 0
2.2337599 7.999392 -1.6749895 0 0 0
2.5966749 7.9899907 -1.670862 0 0 0
5.2590189 8.1061296 -1.6668541 0 0 0
0.76862526 8.5122328 -1.5822427 0 0 0
0.84244728 8.3334389 -1.6245229 0 0 0
5.2283688 8.4864368 -1.8069131 0 0 0
1.7590485 8.8125401 -1.8729856 0 0 0
1.7207003 9.1726217 -1.845372 0 0 0
4.5371599 4.2713642 -1.4706328 0 0 0
4.6725254 4.3441458 -1.5046804 0 0 0
4.4420748 4.4935331 -1.3929203 0 0 0
4.6674156 4.4520092 -1.4572198 0 0 0
6.8832512 4.5624886 -1.4184406 0 0 0
9.4304066 4.6730986 -1.3884099 0 0 0
9.5956593 4.6545229 -1.3791702 0 0 0
10.062579 4.7172728 -1.3727529 0 0 0
10.33633 4.706389 -1.3815496 0 0 0
10.623014 4.7622209 -1.5094354 0 0 0
11.085297 4.7348371 -1.5368822 0 0 0
9.460146 5.1039085 -1.3053491 0 0 0
9.7466803 5.0570598 -1.3668458 0 0 0
10.076659 4.9595938 -1.3972161 0 0 0
10.405944 4.9826498 -1.4605343 0 0 0
10.738663 4.9568791 -1.4565418 0 0 0
11.098665 4.8490071 -1.569782 0 0 0
5.0390453 5.2832804 -1.2839677 0 0 0
8.4072361 5.4415989 -1.2946088 0 0 0
8.7004576 5.4096413 -1.2840555 0 0 0
9.0316887 5.3704553 -1.3379266 0 0 0
9.3887434 5.3324027 -1.4207218 0 0 0
9.7231817 5.3009191 -1.4681914 0 0 0
9.9902477 5.2569852 -1.4907033 0 0 0
10.388329 5.2524891 -1.4163001 0 0 0
10.640934 5.1864629 -1.2694795 0 0 0
7.7775154 5.8013296 -1.3482988 0 0 0
7.8470955 5.8022671 -1.2604501 0 0 0
8.3633261 5.59972 -1.3491781 0 0 0
8.6675205 5.6581798 -1.3731034 0 0 0
8.9838085 5.6342549 -1.4056904 0 0 0
9.3515749 5.578505 -1.4292104 0 0 0
9.7123842 5.5131984 -1.4014804 0 0 0
9.9029016 5.5177922 -1.5493853 0 0 0
10.379345 5.492321 -1.3069303 0 0 0
7.3359003 6.0162168 -1.3652585 0 0 0
7.6246424 5.9910002 -1.4081876 0 0 0
7.8646421 5.9712477 -1.3321373 0 0 0
8.3398247 5.9274216 -1.3136327 0 0 0
8.641264 5.9109592 -1.447511 0 0 0
6.0060959 6.4958549 -1.3159616 0 0 0
6.1625452 6.4686465 -1.3252714 0 0 0
6.4726467 6.4345698 -1.3937318 0 0 0
7.3339939 6.1842151 -1.5301569 0 0 0
7.6544552 6.2382202 -1.5454204 0 0 0
2.5262556 6.8058572 -1.3689497 0 0 0
2.893055 6.8416409 -1.3972986 0 0 0
3.3281755 6.8622003 -1.3711927 0 0 0
3.6302948 6.8709435 -1.4828393 0 0 0
4.8559799 6.8235216 -1.3496702 0 0 0
5.1855469 6.7963438 -1.3664968 0 0 0
5.470602 6.7396693 -1.4130313 0 0 0
5.9126463 6.6028872 -1.4650838 0 0 0
6.1187258 6.5820322 -1.5588605 0 0 0
1.6627908 7.1722336 -1.4011152 0 0 0
3.5108232 6.2401233 -1.9503543 0 0 0
3.2719984 6.915875 -1.6295798 0 0 0
3.4594574 7.0257244 -1.4655697 0 0 0
3.7107153 7.0480394 -1.4031808 0 0 0
4.0981846 7.0196042 -1.37658 0 0 0
4.4822035 6.9734402 -1.4415491 0 0 0
4.8324652 6.9794965 -1.4455473 0 0 0
5.0906792 6.9565339 -1.5127184 0 0 0
0.7456584 7.4242439 -1.2512796 0 0 0
1.6545219 7.3928189 -1.4307063 0 0 0
3.2204285 6.3142462 -2.0661533 0 0 0
3.0437069 7.3774714 -1.4520438 0 0 0
3.3329353 7.4325023 -1.5647867 0 0 0
3.8214655 7.5756822 -1.5102785 0 0 0
0.65971088 7.7492981 -1.5116465 0 0 0
1.6402092 7.6540141 -1.4256728 0 0 0
2.4585657 7.7442188 -1.5430958 0 0 0
2.6552858 7.764236 -1.4849975 0 0 0
3.5891342 7.660893 -1.3945024 0 0 0
3.6556358 7.5941062 -1.5354078 0 0 0
4.1012554 7.8196397 -1.5781763 0 0 0
5.0830059 7.9028831 -1.436712 0 0 0
0.66991377 8.111742 -1.3442633 0 0 0
2.12602 8.1642294 -1.454869 0 0 0
2.5051861 8.0040817 -1.4373395 0 0 0
2.6367617 8.0427389 -1.4176567 0 0 0
4.9547653 8.1776676 -1.2709501 0 0 0
5.0949755 8.1105061 -1.4084876 0 0 0
0.66365528 8.463007 -1.377259 0 0 0
5.0991278 8.3522234 -1.4502923 0 0 0
4.544775 3.964067 -0.89119887 0 0 0
4.2397156 4.3645372 -0.89456344 0 0 0
4.3347759 4.3341641 -1.0982606 0 0 0
5.9275551 4.3440971 -0.90295959 0 0 0
7.1312752 4.4121232 -1.007261 0 0 0
4.2296343 4.5611672 -1.0080063 0 0 0
6.6664753 4.5774632 -1.1469781 0 0 0
6.8915243 4.5287361 -1.0539529 0 0 0
8.3923941 4.6106195 -0.97429633 0 0 0
8.6204414 4.6793509 -1.0211627 0 0 0
8.9985609 4.7233586 -0.98750186 0 0 0
9.2694941 4.6638846 -1.0170138 0 0 0
