ply
format ascii 1.0
comment PCL generated
element vertex 1192
property float x
property float y
property float z
property uchar red
property uchar green
property uchar blue
element camera 0
property float view_px
property float view_py
property float view_pz
property float x_axisx
property float x_axisy
property float x_axisz
property float y_axisx
property float y_axisy
property float y_axisz
property float z_axisx
property float z_axisy
property float z_axisz
property float focal
property float scalex
property float scaley
property float centerx
property float centery
property int viewportx
property int viewporty
property float k1
property float k2
end_header
-12.026557 5.1439657 1.301598 100 0 0
-12.466137 14.220791 1.4145658 100 0 0
-9.7736187 0.92068821 2.2847986 100 0 0
-12.030819 10.455838 1.1026696 100 0 0
-11.569846 5.6476512 -1.6946365 100 0 0
-12.313231 15.109106 -2.0338781 100 0 0
-11.456332 2.1513727 1.617774 100 0 0
-8.9591179 15.027466 -2.0171103 100 0 0
-11.590785 7.3907251 -1.1208388 100 0 0
-11.077425 12.441257 -1.4597427 100 0 0
-10.992609 3.7059832 -2.2109466 100 0 0
-12.96181 4.1528087 -0.42022258 100 0 0
-13.035054 12.373425 1.5989969 100 0 0
-12.77239 0.76859367 -0.25369817 100 0 0
-8.8446751 11.870214 1.457365 100 0 0
-12.995955 12.114916 -1.026405 100 0 0
-9.8067102 10.092917 -2.1106884 100 0 0
-8.5119591 7.6172957 0.72502834 100 0 0
-10.658422 10.480708 2.0819678 100 0 0
-8.2830954 10.742563 -0.33779231 100 0 0
-12.949368 0.71722412 0.82547957 100 0 0
-10.841994 9.6190128 2.2769828 100 0 0
-10.246062 2.9107444 2.1177783 100 0 0
-12.278657 -0.12628813 -1.8205346 100 0 0
-11.046158 14.45911 -2.2393758 100 0 0
-12.371557 11.012982 1.9313576 100 0 0
-11.108605 3.9530766 -2.181649 100 0 0
-12.968897 16.349859 1.1985178 100 0 0
-11.472828 8.3014097 2.3074722 100 0 0
-12.413521 1.2726202 -1.9681771 100 0 0
-11.272674 0.61992931 -2.2860699 100 0 0
-9.0354195 12.352121 -1.7023001 100 0 0
-13.989387 3.8255568 0.76369643 100 0 0
-11.43823 10.373371 -2.2596142 100 0 0
-8.0679464 0.27388769 1.4188337 100 0 0
-10.366679 13.792397 2.2193601 100 0 0
-9.3329334 6.1502919 -1.612751 100 0 0
-11.992702 3.4954112 2.0372217 100 0 0
-12.566831 8.887435 1.113561 100 0 0
-9.9706984 2.8216131 -1.9981921 100 0 0
-8.5022144 12.10126 -0.074900523 100 0 0
-10.927484 17.204708 -2.2095554 100 0 0
-11.403326 10.269242 -2.1145458 100 0 0
-8.7092505 0.81322944 1.2883271 100 0 0
-13.636749 1.0799017 0.48044086 100 0 0
-8.9778767 12.712459 -1.0819318 100 0 0
-9.0492201 3.0857201 0.87042922 100 0 0
-11.919898 9.6325836 -2.1600771 100 0 0
-10.380316 0.041574933 -2.1357462 100 0 0
-10.92865 4.2221937 -2.0724702 100 0 0
-11.268647 4.8422813 2.3748751 100 0 0
-8.6385822 7.3259921 0.93502849 100 0 0
-10.493939 1.5507929 2.2943575 100 0 0
-9.0463734 14.17269 -0.98611051 100 0 0
-9.0643082 14.303254 -1.4543205 100 0 0
-9.6830444 9.9343681 -1.6730235 100 0 0
-9.079133 15.037142 1.2953241 100 0 0
-12.199598 5.2957692 1.6245974 100 0 0
-8.7089157 16.593195 1.1359704 100 0 0
-11.438336 14.736657 0.15565395 100 0 0
-10.900078 10.193323 2.5253024 100 0 0
-8.7314587 5.3631763 1.4979063 100 0 0
-9.2839727 8.38585 -1.2921817 100 0 0
-8.405057 5.1119246 0.83178717 100 0 0
-11.280532 14.612921 2.0632877 100 0 0
-9.4106827 2.3597083 -2.228745 100 0 0
-11.231231 5.0120521 -2.2437437 100 0 0
-8.346674 8.7008314 0.35350773 100 0 0
-8.8300018 5.215261 -0.092839666 100 0 0
-8.9484081 4.6247611 0.90995264 100 0 0
-8.1346626 13.529304 -0.19413696 100 0 0
-10.007111 11.477575 -2.1050365 100 0 0
-9.9834967 5.9390464 2.2073348 100 0 0
-8.6011105 8.3725424 0.44435087 100 0 0
-11.980897 13.170525 2.3088818 100 0 0
-12.427042 7.8857265 1.0576881 100 0 0
-13.278183 10.943366 1.4417109 100 0 0
-11.556515 8.3120108 2.4224992 100 0 0
-10.63625 11.128267 -2.0564733 100 0 0
-13.577001 7.1358519 0.45201799 100 0 0
-11.582715 11.822639 1.93097 100 0 0
-13.076339 14.751825 -0.41672516 100 0 0
-9.8418474 4.9882574 1.9882019 100 0 0
-13.813374 11.772041 0.45954543 100 0 0
-11.117622 11.095047 1.9238099 100 0 0
-11.959304 1.2724274 -1.3895005 100 0 0
-9.436203 6.6308708 2.0243919 100 0 0
-9.4215021 -0.30340466 1.5188302 100 0 0
-9.6317711 5.8609586 -2.0788713 100 0 0
-11.719269 12.162178 1.9762542 100 0 0
-10.058969 6.5811944 2.2528682 100 0 0
-12.586098 15.640635 -1.406388 100 0 0
-10.782511 5.666368 -2.2490437 100 0 0
-13.470606 2.2933283 0.10965469 100 0 0
-8.797061 16.857225 -1.3143502 100 0 0
-11.172712 11.655807 2.4249053 100 0 0
-13.201596 0.23813491 1.3918757 100 0 0
-8.4102631 9.3739471 0.32742396 100 0 0
-9.2930927 7.3758483 1.9781284 100 0 0
-9.517293 13.154306 -2.1783588 100 0 0
-8.4762106 3.4218702 0.65912431 100 0 0
-9.005662 15.292924 -1.9366072 100 0 0
-8.8621855 11.514477 -0.77929378 100 0 0
-12.538945 15.599671 -1.7673777 100 0 0
-8.1582146 5.0193 -1.3671384 100 0 0
-8.1545544 9.1113138 0.53331888 100 0 0
-12.573513 14.694475 0.69248176 100 0 0
-12.560922 5.54388 -0.9447673 100 0 0
-11.321153 5.0074444 -1.6178433 100 0 0
-11.368031 10.027779 1.9341486 100 0 0
-9.8662376 6.1244025 1.9548813 100 0 0
-12.931799 11.522516 1.0939978 100 0 0
-11.492397 12.799082 -1.7775155 100 0 0
-9.2961426 15.690605 0.37202266 100 0 0
-7.8104901 12.361359 0.31229481 100 0 0
-9.1699362 3.9643879 -0.84667635 100 0 0
-11.814857 5.734375 1.285545 100 0 0
-12.904063 13.653107 -0.94045836 100 0 0
-11.573239 8.072238 -0.78292763 100 0 0
-9.2709618 0.66378117 1.9585984 100 0 0
-11.673528 0.085024416 -2.097223 100 0 0
-12.943558 14.358527 1.5548697 100 0 0
-8.9591608 6.4296732 -2.1074765 100 0 0
-11.039394 9.4434948 -2.1004941 100 0 0
-12.455329 7.622766 -1.8823851 100 0 0
-13.151032 9.1306601 0.62122226 100 0 0
-12.513977 8.0473785 1.3718255 100 0 0
-8.0984106 4.2052956 -1.2668165 100 0 0
-8.4206696 2.8175225 -0.75085294 100 0 0
-11.497053 14.796406 -2.067066 100 0 0
-9.2487316 11.97258 0.26851663 100 0 0
-8.8223343 14.093884 -1.1316558 100 0 0
-10.39292 -0.15853848 2.1562123 100 0 0
-9.1523552 14.717129 -1.8399343 100 0 0
-12.948928 9.4088297 0.39606211 100 0 0
-8.8288412 6.3244576 -0.074599274 100 0 0
-12.429615 -0.65026182 1.0480516 100 0 0
-10.897547 1.0711123 2.2576709 100 0 0
-8.406848 17.487516 0.27612546 100 0 0
-12.859067 6.4818621 1.7304217 100 0 0
-11.571039 4.5034394 -1.6994016 100 0 0
-7.9989352 12.912659 0.24659541 100 0 0
-8.6793976 14.822078 -1.105868 100 0 0
-8.2636709 8.0759468 -0.083371364 100 0 0
-11.289219 1.8859177 2.3721838 100 0 0
-9.2450972 8.1797171 -2.2864354 100 0 0
-12.757796 10.9732 1.0992817 100 0 0
-11.621543 3.1838474 -1.9091876 100 0 0
-8.4341784 1.3046813 0.22598597 100 0 0
-8.4630995 -0.13462408 1.0094688 100 0 0
-8.5618792 7.7497153 -0.35134897 100 0 0
-12.133799 8.998312 0.7624402 100 0 0
-8.8574848 5.2248712 -1.388867 100 0 0
-8.5504923 0.072642505 1.2236437 100 0 0
-9.1642685 15.245189 -2.2337341 100 0 0
-12.783802 16.355158 -1.4404168 100 0 0
-9.5806437 7.7067552 1.1537255 100 0 0
-12.402155 1.1626017 -0.69515204 100 0 0
-8.6684704 9.31742 -0.93235618 100 0 0
-10.012444 9.9877453 2.0115204 100 0 0
-8.3595858 12.707418 -0.39074928 100 0 0
-11.016175 10.354163 1.8718729 100 0 0
-9.9302816 0.40430072 2.2050748 100 0 0
-10.746584 11.001918 -2.0651712 100 0 0
-8.9730854 16.817152 -1.9317865 100 0 0
-8.8172235 2.9107161 -0.79644769 100 0 0
-9.1492624 3.9047256 0.64554745 100 0 0
-13.184142 2.6743073 -1.122838 100 0 0
-8.8632803 0.88818151 -1.965156 100 0 0
-11.639566 6.0706191 -2.1523118 100 0 0
-10.518941 7.8984523 -2.308929 100 0 0
-13.238023 8.2167616 0.18386498 100 0 0
-8.5107412 10.249894 -0.52883118 100 0 0
-8.1952496 6.6279678 0.92229062 100 0 0
-9.7473116 14.091322 -1.8470299 100 0 0
-13.544557 9.8976917 -0.13195649 100 0 0
-9.3021793 11.167851 -1.7207446 100 0 0
-11.521905 4.27492 1.9282781 100 0 0
-13.292626 10.818426 -0.61387068 100 0 0
-12.964493 14.25969 -0.34266287 100 0 0
-12.440766 8.9128351 1.8503703 100 0 0
-8.5909843 0.9125281 -0.65323836 100 0 0
-9.9987535 17.399607 -2.0098383 100 0 0
-9.5569105 12.529093 -1.9705175 100 0 0
-8.5387049 1.7546453 0.24123426 100 0 0
-10.292324 10.837882 2.224515 100 0 0
-8.5358648 13.973482 0.069165744 100 0 0
-12.956743 13.068773 -0.030919824 100 0 0
-10.572665 -0.52577275 2.1857858 100 0 0
-9.9681873 4.8147402 2.2191021 100 0 0
-12.843135 16.018124 0.66915965 100 0 0
-8.5657005 16.415689 0.8369568 100 0 0
-11.862267 6.0447121 1.975125 100 0 0
-11.99146 3.3849342 0.38231385 100 0 0
-10.379776 10.575919 2.4576943 100 0 0
-12.634928 9.4041414 -0.74976784 100 0 0
-10.967947 7.4558225 2.0807176 100 0 0
-13.05948 3.5935233 0.20586748 100 0 0
-10.723413 14.432902 -2.1815565 100 0 0
-8.7320204 7.3971806 -1.3728703 100 0 0
-11.785299 6.4699664 -1.6150875 100 0 0
-9.4612684 0.30056116 -2.2810054 100 0 0
-10.250954 15.585947 -2.104136 100 0 0
-12.19905 1.5542772 -1.2993922 100 0 0
-11.792865 1.8031172 2.1781955 100 0 0
-9.9200058 11.496829 -2.2683849 100 0 0
-13.006569 12.66315 0.14916578 100 0 0
-11.391415 11.495571 2.0259876 100 0 0
-14.290574 12.197027 -1.0902449 100 0 0
-9.2489491 6.5981946 -1.9030122 100 0 0
-11.604657 3.5630491 -1.4043806 100 0 0
-10.777427 6.9562902 2.1287394 100 0 0
-11.947367 16.34816 -1.8136081 100 0 0
-11.006659 16.777498 -2.2145131 100 0 0
-10.275846 12.706914 2.3531137 100 0 0
-10.025144 -0.41777363 2.0339115 100 0 0
-11.509728 4.5722709 -2.0617392 100 0 0
-8.5957899 10.059308 0.46406063 100 0 0
-12.085634 6.9874277 0.47664151 100 0 0
-10.942393 3.6563683 2.1684697 100 0 0
-10.739223 13.209455 -1.9906704 100 0 0
-12.018503 2.9728293 1.9399186 100 0 0
-8.2019424 13.121284 -0.13736947 100 0 0
-8.4742765 10.561128 1.1635153 100 0 0
-9.6901264 5.3864107 1.455997 100 0 0
-11.66794 11.361454 2.1004317 100 0 0
-10.069349 12.930181 2.498096 100 0 0
-10.773607 14.322212 2.2946227 100 0 0
-10.740376 6.7998357 -2.062784 100 0 0
-11.899583 10.327599 0.30246004 100 0 0
-11.704873 10.777799 1.7342409 100 0 0
-8.3825302 7.6690645 0.60060549 100 0 0
-10.392053 6.7820635 2.2444851 100 0 0
-10.720895 15.879945 -2.1208425 100 0 0
-11.843979 9.1861649 2.3495095 100 0 0
-8.7876225 4.3901682 0.1585848 100 0 0
-10.60631 3.1136897 -2.2682161 100 0 0
-8.4598541 0.99062485 1.3650569 100 0 0
-11.240488 2.7907615 2.0835586 100 0 0
-8.7067986 10.600271 -1.2487816 100 0 0
-9.4754181 13.583021 -2.2448235 100 0 0
-12.461209 4.8075833 -0.7256611 100 0 0
-13.102316 4.5134521 0.86426514 100 0 0
-9.2839737 0.83429265 1.0935973 100 0 0
-11.035446 10.070967 2.3340096 100 0 0
-9.4647694 -0.26204211 1.5977912 100 0 0
-9.5393476 5.1768689 -1.2237107 100 0 0
-11.737082 16.815834 2.1231067 100 0 0
-13.187443 12.832967 -0.078118779 100 0 0
-9.7638979 2.5558047 -1.8133595 100 0 0
-11.413424 10.447686 -2.2120368 100 0 0
-9.3673782 13.693803 -1.9485321 100 0 0
-11.782285 12.514519 -1.354658 100 0 0
-8.1984091 4.7488561 0.3901937 100 0 0
-9.1276665 15.679538 1.7956353 100 0 0
-8.6942453 12.19186 0.92764044 100 0 0
-9.4132605 1.1962212 1.3481908 100 0 0
-12.899884 4.8282642 -0.72284377 100 0 0
-11.411013 11.983602 -1.7055995 100 0 0
-8.2188444 1.3744318 1.286602 100 0 0
-13.549244 7.3092566 1.3559201 100 0 0
-8.4620743 0.75510192 -0.62290782 100 0 0
-9.5574951 15.695126 -2.3036513 100 0 0
-9.2505007 9.7921371 1.4621503 100 0 0
-9.3242025 2.3639693 -2.2725079 100 0 0
-7.9732952 0.99842948 0.21717103 100 0 0
-9.3892212 16.623783 -1.6115414 100 0 0
-8.7781286 0.61370277 1.4838109 100 0 0
-10.187427 12.075543 -2.0574405 100 0 0
-13.379331 2.2892015 2.0371354 100 0 0
-13.464126 2.7237988 -0.025160812 100 0 0
-9.4620075 12.833691 1.6558362 100 0 0
-11.119396 12.902137 -2.2009153 100 0 0
-9.2734461 10.373812 -1.825851 100 0 0
-12.324868 11.908429 0.64743114 100 0 0
-9.447053 1.502067 -1.7627255 100 0 0
-8.6429377 0.092114337 0.85598058 100 0 0
-9.1673927 9.1577644 0.9171983 100 0 0
-9.2653141 5.4012308 1.9704536 100 0 0
-8.2701101 4.5679555 -0.95462626 100 0 0
-8.8614388 13.862248 1.3101662 100 0 0
-12.214632 16.517559 1.0053662 100 0 0
-11.232098 12.67241 -2.4393268 100 0 0
-11.704276 10.564632 -1.8067994 100 0 0
-10.419049 -0.24768071 1.9946862 100 0 0
-12.709037 14.695181 0.60282958 100 0 0
-12.565493 15.414561 -0.88831913 100 0 0
-11.4185 11.168232 -1.471272 100 0 0
-9.7751741 5.838284 1.7819566 100 0 0
-10.212522 15.170863 -2.0157757 100 0 0
-12.35557 2.2005377 -2.2105529 100 0 0
-9.887825 7.2276936 2.1303289 100 0 0
-11.229815 7.112762 2.15944 100 0 0
-11.412374 11.486213 -2.3235457 100 0 0
-12.518398 4.8983603 -1.5267241 100 0 0
-11.423467 1.712445 -2.2360947 100 0 0
-9.6195192 2.0214202 1.4005181 100 0 0
-12.376025 14.088916 -0.50771117 100 0 0
-9.461977 0.6089325 2.0770092 100 0 0
-9.0494471 3.8484309 -1.523172 100 0 0
-8.7655001 8.4883385 -0.75785786 100 0 0
-8.8048515 2.9136505 -1.5689698 100 0 0
-10.733555 2.1916621 -2.1276774 100 0 0
-13.704516 9.9649458 0.35422555 100 0 0
-9.4351997 3.8730295 -2.1868362 100 0 0
-8.624095 7.8466468 1.6698186 100 0 0
-11.421487 4.9080706 1.8481745 100 0 0
-12.910126 10.685203 -0.55359399 100 0 0
-11.440973 14.554749 -2.2614412 100 0 0
-9.3452072 1.545592 1.7995042 100 0 0
-12.515034 10.211953 -1.8107133 100 0 0
-12.68332 11.937942 2.0741353 100 0 0
-10.897668 12.316872 -1.8284703 100 0 0
-12.146873 6.2772245 1.9910764 100 0 0
-8.9979334 13.014637 0.48277685 100 0 0
-8.7650137 15.574695 -1.1899555 100 0 0
-12.569106 10.071607 1.1857189 100 0 0
-9.1810484 15.217512 1.6195605 100 0 0
-12.308921 3.6939516 -1.7710299 100 0 0
-10.168368 7.393548 1.6918216 100 0 0
-12.016975 12.320217 1.492474 100 0 0
-8.9951591 10.344663 1.4214664 100 0 0
-11.281819 14.243937 0.55754268 100 0 0
-10.578646 15.678383 -2.0986645 100 0 0
-10.964599 7.6022573 -2.0641847 100 0 0
-7.8219776 3.5664203 -0.036009323 100 0 0
-11.502934 13.840729 2.2485669 100 0 0
-11.326797 15.286337 -2.1201224 100 0 0
-11.222879 12.044677 -2.2322123 100 0 0
-11.400565 6.8059492 -2.0789075 100 0 0
-12.690491 0.77654022 2.0464435 100 0 0
-14.231475 6.7286725 -1.7522033 100 0 0
-12.545113 11.417827 -0.22178142 100 0 0
-10.750248 0.34166613 -2.299402 100 0 0
-9.9820518 7.6136484 -1.9328049 100 0 0
-11.770555 17.344591 1.6846312 100 0 0
-11.156585 5.8199201 -2.1838613 100 0 0
-9.1514091 3.2935486 1.705281 100 0 0
-8.731328 1.3456323 1.6458303 100 0 0
-12.759255 2.0457659 0.11232611 100 0 0
-12.635764 15.795193 1.7898537 100 0 0
-12.539362 6.7466011 1.7161518 100 0 0
-9.1222982 10.408841 -1.9558429 100 0 0
-12.356057 6.452704 0.71674263 100 0 0
-12.116212 0.98491597 -0.63036478 100 0 0
-9.2870102 15.533921 1.6681684 100 0 0
-10.662202 7.5914688 2.029145 100 0 0
-9.1254034 16.885195 0.65402806 100 0 0
-8.5634279 18.376184 -1.3714502 100 0 0
-12.240177 8.3420153 1.8041643 100 0 0
-13.135016 12.724343 -1.2606369 100 0 0
-8.839839 0.45836905 0.14767261 100 0 0
-11.221029 15.484269 -1.9482962 100 0 0
-9.4623337 3.9722834 1.2065475 100 0 0
-9.0204315 15.151155 0.15987498 100 0 0
-8.8462343 7.3653927 1.90172 100 0 0
-12.965362 1.3997645 -0.76000869 100 0 0
-12.414825 3.342756 0.74644691 100 0 0
-12.456541 3.6217065 -0.37767711 100 0 0
-13.255153 2.2765691 -0.62723064 100 0 0
-8.9293938 -0.5955497 1.9272074 100 0 0
-12.101592 13.695656 -1.864795 100 0 0
-10.584766 -0.11086862 -2.3347254 100 0 0
-9.7104931 14.377784 -1.3389748 100 0 0
-10.312063 14.498844 -1.6920581 100 0 0
-11.997872 8.9472103 1.697408 100 0 0
-8.7389107 7.8912497 -1.8345153 100 0 0
-8.6943083 15.527726 -0.36424825 100 0 0
-8.0903587 13.20391 -1.0295842 100 0 0
-10.241462 1.4979479 -2.1962087 100 0 0
-8.1971083 16.043663 0.33935657 100 0 0
-8.6585093 4.3102341 0.71273774 100 0 0
-9.5619946 8.5015554 2.0996277 100 0 0
-11.652216 6.4643831 2.2789092 100 0 0
-9.8028679 10.790223 -2.1538076 100 0 0
-10.417678 16.200312 2.3547776 100 0 0
-10.700241 7.2510562 -1.937534 100 0 0
-12.291536 8.6370773 -1.9121066 100 0 0
-9.0775595 5.2325644 -2.0142128 100 0 0
-10.922029 2.8868797 2.218111 100 0 0
-9.6257429 3.3100972 1.9347374 100 0 0
-11.414513 3.4315484 2.1394057 100 0 0
-13.3051 8.7914381 -0.66469836 100 0 0
-12.67859 12.576282 -1.9571874 100 0 0
-10.883056 8.2009583 -2.3481722 100 0 0
-11.062278 13.028946 -2.2371821 100 0 0
-9.8732386 3.2664289 -1.9745779 100 0 0
-12.762788 1.2268568 -1.2125927 100 0 0
-13.335923 5.8604178 0.62445009 100 0 0
-8.4329844 0.54117727 -0.53462785 100 0 0
-12.524478 13.259401 -1.478112 100 0 0
-12.73118 12.023855 -1.4574009 100 0 0
-13.470917 9.7467508 -1.3595486 100 0 0
-12.082775 6.6226768 1.7688245 100 0 0
-9.8493767 10.387999 -2.0898228 100 0 0
-12.195825 15.62593 -2.1942506 100 0 0
-12.164572 5.3199325 0.47971603 100 0 0
-9.4450426 13.153272 -0.73471737 100 0 0
-9.3209419 10.001949 1.3515127 100 0 0
-9.1226244 -0.21217781 -1.736403 100 0 0
-8.8438244 11.155141 -0.5524444 100 0 0
-13.101074 5.5355563 0.77012855 100 0 0
-12.639851 16.115458 1.5863456 100 0 0
-8.6608801 5.824275 -0.87207139 100 0 0
-12.106469 0.024077578 1.6320286 100 0 0
-13.669341 6.2301211 -0.060730007 100 0 0
-13.567166 0.0003110464 -1.2231896 100 0 0
-12.359118 15.637448 1.0257212 100 0 0
-10.510828 5.5894251 -2.0981338 100 0 0
-10.792578 3.3258715 2.1415184 100 0 0
-12.589596 16.772972 2.2071047 100 0 0
-8.2344284 3.615464 0.054149508 100 0 0
-12.535362 2.5689766 -1.3695571 100 0 0
-11.763819 0.67214125 -1.9328241 100 0 0
-8.9583282 11.242966 -1.6167715 100 0 0
-9.158534 -0.46608466 -0.929869 100 0 0
-13.400217 5.4733419 -1.151144 100 0 0
-11.357382 16.169279 -1.7589264 100 0 0
-12.213058 4.5934868 -2.0225 100 0 0
-10.003041 -0.51803321 2.0551777 100 0 0
-10.623755 5.6134443 2.2835565 100 0 0
-9.9075651 12.065128 2.4474168 100 0 0
-9.1820831 14.39579 -0.93481243 100 0 0
-9.6781054 6.5920482 -1.6954545 100 0 0
-12.865707 14.411215 1.4965867 100 0 0
-11.595588 3.8048241 2.0555444 100 0 0
-12.071604 1.5194731 2.0212696 100 0 0
-8.6483259 8.0473843 -1.6555839 100 0 0
-8.7097769 7.0868354 -1.2470936 100 0 0
-13.068872 6.2526264 -0.5627808 100 0 0
-13.575564 16.806734 -1.3343074 100 0 0
-8.9322901 11.13728 0.88861525 100 0 0
-12.786865 10.544321 1.7299572 100 0 0
-9.6384382 -0.77458006 -1.4027687 100 0 0
-13.374205 9.7878017 -1.0172529 100 0 0
-9.5781507 8.0933619 -1.9861469 100 0 0
-9.0074959 -0.66034448 0.90990531 100 0 0
-9.077198 12.539616 -0.7965914 100 0 0
-8.6033745 15.273756 -1.7092897 100 0 0
-12.598035 6.0966959 -0.77388871 100 0 0
-10.955553 12.082084 2.4977155 100 0 0
-11.688282 0.87837869 1.6919334 100 0 0
-10.215723 2.8065705 -2.3083065 100 0 0
-8.3976593 1.8775328 1.950282 100 0 0
-9.2127132 14.56878 2.0424824 100 0 0
-10.854521 0.42735109 -2.2699275 100 0 0
-11.066533 14.113645 -2.0844069 100 0 0
-10.753225 -0.79284239 -2.0144598 100 0 0
-12.789944 8.1807299 1.7444898 100 0 0
-13.570258 15.680507 0.85505551 100 0 0
-9.7931747 17.742435 2.1225843 100 0 0
-9.0098896 -0.16647473 -1.144271 100 0 0
-9.8860636 11.985926 -2.078054 100 0 0
-8.9949245 9.4787073 -1.843411 100 0 0
-9.1668606 2.7188892 -1.4331982 100 0 0
-10.792822 6.0896478 2.2948551 100 0 0
-13.235955 3.778811 1.0586057 100 0 0
-12.535945 8.2078238 -0.71235365 100 0 0
-12.587558 2.7564013 -0.84548008 100 0 0
-12.300953 16.91081 1.7440337 100 0 0
-12.859032 9.7477283 0.40950507 100 0 0
-13.345782 -0.12090642 -0.57121402 100 0 0
-12.25172 11.644678 -1.46039 100 0 0
-8.3880081 13.461263 0.66835463 100 0 0
-11.240891 1.400685 -2.1242795 100 0 0
-12.067702 11.496025 2.3133628 100 0 0
-13.028151 16.098534 0.42401791 100 0 0
-11.752577 -0.18905173 1.681654 100 0 0
-9.3253574 5.3438001 -1.5720292 100 0 0
-8.1467085 1.9014407 -1.1626662 100 0 0
-8.7209282 12.287991 0.08237835 100 0 0
-13.306639 14.593556 0.78169048 100 0 0
-12.976731 13.048039 -1.2922748 100 0 0
-12.055779 8.6438036 2.2607715 100 0 0
-12.818342 16.095114 -0.67061353 100 0 0
-10.832488 11.816478 -2.2287312 100 0 0
-12.344311 16.89337 -0.07238213 100 0 0
-12.572787 3.1031635 -1.09251 100 0 0
-11.869689 11.696221 -1.8488129 100 0 0
-9.9129715 15.456815 1.6299002 100 0 0
-11.774205 1.9446292 1.4383078 100 0 0
-11.848658 5.9675865 -1.9725525 100 0 0
-8.3109179 3.1759262 -0.76687503 100 0 0
-8.569912 2.9727187 -0.90003139 100 0 0
-12.760349 2.7314556 0.023206746 100 0 0
-12.619232 7.3855672 -0.98897797 100 0 0
-13.901841 0.69997603 0.61134738 100 0 0
-12.575763 9.0020142 -0.78860563 100 0 0
-12.646813 3.4625585 0.3829954 100 0 0
-11.300785 6.9231806 -2.259613 100 0 0
-10.307604 2.7020383 -2.0426672 100 0 0
-9.6719341 1.2858145 -1.6363033 100 0 0
-9.9902258 3.0364518 -2.1342223 100 0 0
-9.4574614 8.1576967 -0.27782902 100 0 0
-12.725243 0.94349182 -1.2372502 100 0 0
-11.944523 2.5125506 1.8450823 100 0 0
-12.719611 -0.8177731 -0.30111328 100 0 0
-11.50952 1.6735958 -1.3319682 100 0 0
-9.4179182 10.736501 -0.18766299 100 0 0
-13.078542 14.311345 -0.049400266 100 0 0
-8.6113825 17.516848 1.2209892 100 0 0
-10.108864 7.6879411 -2.2777247 100 0 0
-8.3302803 12.21475 -0.65812391 100 0 0
-11.156013 5.6388688 2.2226181 100 0 0
-9.2110758 10.204474 -0.42083889 100 0 0
-12.736947 -0.65654415 -1.2259058 100 0 0
-9.3195047 1.6670182 -1.3637977 100 0 0
-12.323934 12.539837 2.004179 100 0 0
-12.1649 13.086372 -0.73009676 100 0 0
-8.8236828 11.586148 2.0262058 100 0 0
-11.312325 -0.37892094 2.2727222 100 0 0
-11.40904 13.019235 1.8936025 100 0 0
-8.8149128 5.214138 0.086296782 100 0 0
-10.745289 4.2707691 2.063339 100 0 0
-9.0661182 15.811965 -1.5090524 100 0 0
-12.290553 14.197465 -0.28211305 100 0 0
-10.916463 5.6602764 -2.2198844 100 0 0
-8.1729031 4.5064821 -0.87402993 100 0 0
-11.837568 15.38349 -2.0843644 100 0 0
-12.409167 7.9200158 -0.055487953 100 0 0
-7.8018494 12.54805 1.0679559 100 0 0
-9.4213505 12.263612 1.6915557 100 0 0
-12.93926 0.55420607 0.13742888 100 0 0
-7.9956594 0.93199062 -0.69895816 100 0 0
-12.829307 14.307687 0.44516525 100 0 0
-12.474214 11.722288 -1.6494155 100 0 0
-9.613492 16.520988 -1.9981582 100 0 0
-14.120392 7.1038637 -0.053634815 100 0 0
-11.857256 12.468623 2.0539868 100 0 0
-11.008996 2.8045859 2.2257533 100 0 0
-9.0007572 10.515468 -1.8256028 100 0 0
-9.3959599 3.0340154 1.629475 100 0 0
-8.9061279 13.806081 -1.2417083 100 0 0
-9.2781258 15.664639 1.8933494 100 0 0
-8.6733513 14.488192 1.0128074 100 0 0
-11.067478 4.4269915 -1.9580237 100 0 0
-12.225837 3.8095698 -1.6895835 100 0 0
-10.990103 14.543916 -2.1353045 100 0 0
-12.732155 7.4049835 1.963295 100 0 0
-8.3422127 11.701559 0.085145958 100 0 0
-8.9545116 3.4969873 -1.3651432 100 0 0
-11.873153 12.000579 2.0290079 100 0 0
-12.015604 15.919147 -1.6899312 100 0 0
-9.8283939 10.824482 -1.8179848 100 0 0
-9.5454817 13.986467 1.6710438 100 0 0
-12.791655 10.41748 1.371287 100 0 0
-9.6637163 6.1041021 1.7228583 100 0 0
-9.2725735 4.2893963 1.290374 100 0 0
-9.7515278 5.7344308 2.0943315 100 0 0
-9.6578989 5.3333797 2.0100667 100 0 0
-13.770121 15.955541 -0.14707376 100 0 0
-11.191226 9.7862902 2.4090359 100 0 0
-13.674136 4.1250172 -1.4503249 100 0 0
-8.7108755 0.015118357 -0.13985208 100 0 0
-11.628161 13.936156 1.8749192 100 0 0
-9.8125095 9.4258194 2.1127341 100 0 0
-8.4792528 14.498926 1.7653564 100 0 0
-8.3624754 12.766015 -0.08393687 100 0 0
-10.940689 10.909133 2.1501846 100 0 0
-12.583692 4.1266184 1.6653546 100 0 0
-13.137037 0.43037829 0.15762132 100 0 0
-11.891609 3.4995012 -0.20076762 100 0 0
-13.105586 10.658639 -0.84249961 100 0 0
-13.187302 -0.015890207 -0.7542811 100 0 0
-12.666622 7.6711035 -1.2917242 100 0 0
-10.696002 10.853161 -2.0333083 100 0 0
-9.4042416 4.7195864 -1.6188194 100 0 0
-13.828304 11.109948 0.94328779 100 0 0
-10.177469 5.1613522 2.4037735 100 0 0
-12.328931 13.66842 -1.5461557 100 0 0
-11.970578 15.023151 -1.3440175 100 0 0
-9.7080603 9.3709221 1.3769953 100 0 0
-12.901449 2.1564424 1.2574654 100 0 0
-9.8435144 2.2698615 1.9956607 100 0 0
-11.119649 14.866418 2.0965166 100 0 0
-9.1228695 7.1601892 -1.4310013 100 0 0
-12.2753 5.5728321 1.9620914 100 0 0
-11.639448 13.461105 -2.3459604 100 0 0
-9.8706064 7.949223 2.0579953 100 0 0
-7.8872137 12.540587 -0.4198373 100 0 0
-10.324553 4.6378098 1.9027609 100 0 0
-11.954076 6.1646638 1.4895194 100 0 0
-8.2559834 5.552721 -1.4789978 100 0 0
-9.6290026 9.2592812 2.1703854 100 0 0
-12.291187 6.2711687 1.4019871 100 0 0
-10.566065 2.9673233 -2.1586804 100 0 0
-12.783922 9.657753 -1.067121 100 0 0
-9.5580397 11.415071 -1.6938431 100 0 0
-11.331435 16.05073 -2.0319016 100 0 0
-11.322639 16.995821 2.1478822 100 0 0
-8.6905737 14.475556 0.90207189 100 0 0
-12.528269 14.578276 -0.1481674 100 0 0
-8.805068 14.650264 1.8564806 100 0 0
-13.419069 5.2532492 -0.16791739 100 0 0
-9.6178064 7.2919683 1.941319 100 0 0
-11.565136 3.4488199 -2.3095973 100 0 0
-8.0622387 14.867094 0.044382114 100 0 0
-9.0118971 1.9378471 -1.7481154 100 0 0
-10.445824 14.945917 -1.9820077 100 0 0
-7.9027858 11.787498 -1.3972194 100 0 0
-8.7826061 13.629686 -1.0422628 100 0 0
-14.578195 3.8879657 0.34789696 100 0 0
-12.194834 5.7169375 -1.7573041 100 0 0
-9.186717 11.771342 -1.9965383 100 0 0
-10.230138 2.7626898 2.3825665 100 0 0
-8.3193569 8.7349739 1.8928835 100 0 0
-11.847727 7.4379454 0.095979109 100 0 0
-12.601683 16.594982 -0.82199472 100 0 0
-9.5658398 6.8348079 1.185864 100 0 0
-11.583813 6.7570567 2.2969136 100 0 0
-9.3366337 5.7903256 1.7094742 100 0 0
-10.414144 0.71996468 -2.1411095 100 0 0
-11.555474 6.3447003 -2.2040396 100 0 0
-12.898438 17.315849 -2.0612888 100 0 0
-8.3344707 3.0682693 -0.74301654 100 0 0
-8.90026 2.2753503 -1.3683151 100 0 0
-11.698119 1.811578 2.1038876 100 0 0
-9.301055 9.2944841 -2.2760787 100 0 0
-8.8786163 12.681199 2.1822674 100 0 0
-9.4521799 9.1802969 1.9165992 100 0 0
-8.3642015 2.5601227 0.548136 100 0 0
-9.3304424 2.8151267 -1.8000431 100 0 0
-9.9277258 13.661699 1.9582497 100 0 0
-8.2305632 4.5984249 1.0772361 100 0 0
-8.8524866 5.3557801 1.502748 100 0 0
-13.866948 2.639843 0.44186649 100 0 0
-8.6870193 4.3027449 -1.6840823 100 0 0
-11.176677 11.809505 2.0368826 100 0 0
-12.640551 14.573943 -1.4794567 100 0 0
-12.481809 3.4254255 -1.3236015 100 0 0
-9.4648819 5.5823903 1.6746521 100 0 0
-8.1341248 7.4654131 1.0683974 100 0 0
-8.7095652 11.767425 -0.86668509 100 0 0
-11.548757 14.863644 1.7965635 100 0 0
-9.311347 -0.58095753 1.9868338 100 0 0
-11.843689 1.287773 -1.4931359 100 0 0
-9.7054224 10.673767 -1.8049345 100 0 0
-13.160102 13.317287 1.5377326 100 0 0
-11.148016 12.709939 -2.2858708 100 0 0
-9.0442839 2.6668646 0.61552078 100 0 0
-11.267591 7.8473577 -0.58483267 100 0 0
-12.326622 2.2549837 1.227361 100 0 0
-13.053747 -0.58403182 1.463825 100 0 0
-10.883426 3.2856596 2.3606949 100 0 0
-12.316822 6.6306 -0.75800526 100 0 0
-11.537611 10.639701 1.8093408 100 0 0
-12.778773 0.037386764 -0.52132004 100 0 0
-11.935552 11.726275 1.7687936 100 0 0
-11.991709 10.865865 -1.8157986 100 0 0
-10.42964 6.5727639 -0.73714733 100 0 0
-10.92421 11.909314 2.2314348 100 0 0
-12.485574 3.3088064 -2.230067 100 0 0
-8.8586903 6.4522657 -0.74728 100 0 0
-7.852932 14.611256 -0.71095443 100 0 0
-8.8427534 14.390857 -1.6726189 100 0 0
-10.220117 15.769757 -2.1478918 100 0 0
-10.769508 12.659882 2.1450498 100 0 0
-8.604701 8.1730442 0.73997718 100 0 0
-13.679548 17.791126 -0.13438573 100 0 0
-10.702596 16.785664 2.3006797 100 0 0
-8.2251034 0.04472534 -0.51393372 100 0 0
-11.350117 1.3654442 -1.9376566 100 0 0
-11.892505 9.3390846 -0.74752206 100 0 0
-13.440494 5.7784567 0.14965189 100 0 0
-9.2682028 0.12546752 -1.7186369 100 0 0
-9.9602308 11.621214 -2.0024383 100 0 0
-9.4902029 6.5284309 0.45429033 100 0 0
-11.853547 7.8285832 2.2912445 100 0 0
-9.1362486 16.23527 1.3255982 100 0 0
-8.4849367 6.5453782 1.4798168 100 0 0
-11.843029 10.250647 1.4173899 100 0 0
-12.608561 3.7393975 0.054639127 100 0 0
-9.697072 7.8626432 -1.9819067 100 0 0
-11.540088 11.787693 -2.1986775 100 0 0
-12.072904 1.0109485 0.7681936 100 0 0
-13.023379 16.133514 -0.34529573 100 0 0
-10.682469 12.406176 1.8816173 100 0 0
-13.106507 6.4601655 0.87874615 100 0 0
-9.4359903 11.892994 1.8431666 100 0 0
-9.477623 3.7599087 2.1392257 100 0 0
-8.3323421 10.196093 0.43861461 100 0 0
-8.606267 16.493441 -0.39359626 100 0 0
-10.089707 4.3486943 -2.3240232 100 0 0
-11.724315 11.238696 1.7382035 100 0 0
-11.525832 0.038224626 -2.1519787 100 0 0
-11.463129 11.261951 -1.533524 100 0 0
-8.0861225 2.7365508 -0.61606026 100 0 0
-8.9711208 6.4839334 -0.86642331 100 0 0
-12.30374 3.0994725 -1.5127404 100 0 0
-12.232668 17.061157 -0.51773983 100 0 0
-8.3526077 -0.61958355 -0.42580974 100 0 0
-8.7354088 2.9648845 -1.7013595 100 0 0
-9.5746174 2.4562776 -1.2751712 100 0 0
-11.510367 0.57742578 -1.9311244 100 0 0
-12.672495 3.4298921 -1.7461469 100 0 0
-11.784235 3.8704078 -2.0759888 100 0 0
-12.159709 7.6490731 -1.933184 100 0 0
-13.925316 4.4101453 -1.0993223 100 0 0
-9.8659573 17.800446 -2.2523468 100 0 0
-10.728628 4.1216297 2.2546997 100 0 0
-10.59747 1.8429687 2.2485659 100 0 0
-9.0060806 2.2980406 1.5304294 100 0 0
-11.254231 1.3228172 2.1672757 100 0 0
-11.811372 0.035660893 -2.2052453 100 0 0
-8.8184471 4.9991093 -0.43578544 100 0 0
-12.290662 1.4682571 -1.0125419 100 0 0
-8.1617298 12.802705 0.92403728 100 0 0
-11.373666 14.530859 -2.2467241 100 0 0
-8.6836939 1.7131083 1.6349788 100 0 0
-10.69017 6.6410651 2.2629888 100 0 0
-11.628075 0.35816509 0.25202471 100 0 0
-11.18915 15.148415 -1.9606885 100 0 0
-8.5728035 8.8496838 -1.2711052 100 0 0
-8.9650841 1.9954629 -1.5000422 100 0 0
-8.455718 17.059174 0.39118347 100 0 0
-8.176487 12.948677 0.2464771 100 0 0
-13.554183 4.5680838 0.45502555 100 0 0
-12.181519 4.2365236 1.8920909 100 0 0
-13.525165 15.858747 -0.54993993 100 0 0
-12.145685 9.9564724 -2.1909785 100 0 0
-12.462275 10.043195 1.2441314 100 0 0
-12.926948 14.426139 -0.64673889 100 0 0
-8.3736019 12.444691 0.15065347 100 0 0
-11.350845 4.2174959 -2.2359996 100 0 0
-10.925437 2.7017891 2.544522 100 0 0
-12.1747 9.0138464 1.4082127 100 0 0
-11.471466 5.4180474 -2.1997833 100 0 0
-9.0078592 9.4741926 0.87665629 100 0 0
-9.1289473 -0.11675552 -1.519284 100 0 0
-8.8272877 10.491022 -0.41051203 100 0 0
-12.719761 14.579145 -1.248446 100 0 0
-8.4786596 6.8978357 0.21084628 100 0 0
-10.703472 11.381042 1.837321 100 0 0
-9.3517637 12.726231 -1.0243485 100 0 0
-11.633322 8.1308289 1.2156641 100 0 0
-9.9797859 9.4623632 -2.3121254 100 0 0
-11.445139 11.638958 -1.7570677 100 0 0
-8.2460461 0.83188957 0.071802862 100 0 0
-12.687775 2.0201061 -1.6959146 100 0 0
-12.949254 7.6168914 -1.8743112 100 0 0
-13.231765 13.514932 1.1073154 100 0 0
-13.549939 13.1814 1.9686984 100 0 0
-9.2323961 5.7819443 1.998819 100 0 0
-11.750078 5.6899004 -2.1197891 100 0 0
-8.6757927 -0.80987877 -1.1065764 100 0 0
-9.6520357 8.8930864 -1.8395048 100 0 0
-13.013091 8.085885 1.3844935 100 0 0
-9.1470966 5.6175466 1.8740822 100 0 0
-13.215659 3.5358999 1.4806522 100 0 0
-11.316194 7.784533 -1.9662081 100 0 0
-10.934825 3.7721977 -2.2896199 100 0 0
-8.9373016 6.741641 0.070771068 100 0 0
-9.3198671 2.0651159 -0.60841179 100 0 0
-13.080892 4.8278322 -1.6657974 100 0 0
-11.133544 4.2915931 -2.2390754 100 0 0
-11.548452 6.0320506 0.22951268 100 0 0
-11.572661 14.846749 2.0076635 100 0 0
-8.6619415 11.838337 -0.57945192 100 0 0
-13.828947 7.0243492 0.51479751 100 0 0
-10.966212 14.02002 -2.1849456 100 0 0
-10.506459 6.4528337 -2.1995761 100 0 0
-8.7201986 0.35158223 -0.021100793 100 0 0
-12.294806 7.2522078 -1.2252948 100 0 0
-8.5638361 13.82708 -1.6553664 100 0 0
-10.301609 12.822124 -2.4002249 100 0 0
-12.141697 9.2273474 -1.4325113 100 0 0
-10.353012 14.355437 2.2894585 100 0 0
-11.170005 7.2083168 1.6398463 100 0 0
-8.9818878 0.57411462 -1.3225821 100 0 0
-13.605706 11.9688 0.053661607 100 0 0
-9.1834402 14.569433 -1.8264276 100 0 0
-12.196371 7.6606321 1.132181 100 0 0
-11.492411 12.185029 -0.132552 100 0 0
-12.892895 16.570553 1.9732682 100 0 0
-12.673099 15.931605 -0.040234573 100 0 0
-8.1915712 11.109078 0.51585537 100 0 0
-10.929696 17.418419 -2.0431125 100 0 0
-8.6497269 1.7256082 -1.2243377 100 0 0
-10.537395 12.143164 -2.0464799 100 0 0
-10.87497 10.247375 -2.2454085 100 0 0
-12.352777 2.1048231 0.97059959 100 0 0
-11.996963 12.044579 -1.832003 100 0 0
-12.150621 6.7033629 1.604447 100 0 0
-12.319513 11.858575 -1.2535353 100 0 0
-9.2029715 -0.51345325 -1.1817676 100 0 0
-8.1485491 6.3608665 0.76527846 100 0 0
-14.036963 7.3829584 0.29339105 100 0 0
-12.091204 6.3393202 -0.43063161 100 0 0
-9.9381256 6.9244604 1.8739867 100 0 0
-9.9768858 15.45617 -1.8703635 100 0 0
-12.074286 3.0121913 2.2614772 100 0 0
-10.171371 2.0127082 2.2330503 100 0 0
-13.058498 0.29494515 -1.5008354 100 0 0
-9.3376684 7.9402199 1.2391968 100 0 0
-12.722107 8.0447016 0.24681719 100 0 0
-13.511622 0.56997573 -1.0263193 100 0 0
-8.2208843 14.492038 -0.49075198 100 0 0
-7.8099346 13.816313 -0.7867806 100 0 0
-10.57306 13.293902 -1.5611051 100 0 0
-12.766869 10.470248 -1.5877382 100 0 0
-10.048846 11.520375 -2.2335162 100 0 0
-8.4588242 7.7977381 1.0476391 100 0 0
-7.9546514 5.1312904 0.42530313 100 0 0
-9.1522903 3.7811704 1.7464767 100 0 0
-11.991595 11.776929 -1.9866499 100 0 0
-9.3492708 2.2717927 2.1906085 100 0 0
-11.31443 3.5788214 -1.8325602 100 0 0
-9.1481123 16.68051 -0.66229904 100 0 0
-9.9769907 10.374519 -1.9373301 100 0 0
-9.2927656 11.664157 1.2022126 100 0 0
-12.321327 16.808739 0.12690678 100 0 0
-12.538062 11.018402 0.33752 100 0 0
-11.814745 16.040356 -1.9522259 100 0 0
-12.897843 14.233619 0.67223245 100 0 0
-13.439526 13.627809 0.95019644 100 0 0
-13.743944 10.005624 -0.37976766 100 0 0
-11.259894 2.5598786 -2.3144917 100 0 0
-12.087158 7.7204123 -1.5278802 100 0 0
-12.152648 3.3868215 -1.6700131 100 0 0
-7.6721988 6.9893193 -0.13603742 100 0 0
-13.530348 2.0011551 -0.1401583 100 0 0
-13.524227 0.39023969 -0.21895647 100 0 0
-10.401435 13.713105 2.1860921 100 0 0
-10.557069 8.0881262 2.3343 100 0 0
-9.835413 9.9497938 -2.1814528 100 0 0
-8.3966789 4.0514979 0.90081757 100 0 0
-8.7573128 9.6371088 -1.6341561 100 0 0
-9.0967426 10.096204 1.417956 100 0 0
-10.515194 15.926676 -2.3166318 100 0 0
-12.137565 5.7213249 -1.1684159 100 0 0
-11.407743 15.434225 2.0371175 100 0 0
-12.09632 3.54492 -2.0924079 100 0 0
-9.8933573 4.7840571 -2.144758 100 0 0
-12.608819 4.1269321 -1.2337298 100 0 0
-10.530563 7.9943585 2.239908 100 0 0
-12.376017 1.5249364 0.11972462 100 0 0
-12.464663 4.3745766 0.63986552 100 0 0
-9.5683012 16.629339 -1.4539129 100 0 0
-10.773619 7.6718097 -2.1323237 100 0 0
-9.4023027 17.083645 -1.7998992 100 0 0
-11.038785 2.3012545 2.2160096 100 0 0
-13.224248 11.472908 -0.6060378 100 0 0
-9.3432989 -0.71108454 1.5814627 100 0 0
-10.632921 3.4219055 -1.9974328 100 0 0
-11.648544 4.7904177 -1.7442172 100 0 0
-12.758614 3.0688381 -0.060283422 100 0 0
-10.373616 8.547904 -2.3206348 100 0 0
-9.3734703 11.290163 1.9063759 100 0 0
-12.269956 11.190635 2.1489878 100 0 0
-8.0080862 3.9529762 -0.69872254 100 0 0
-8.6818495 16.085867 -0.62025207 100 0 0
-9.031168 -0.30018634 -1.4300331 100 0 0
-10.83269 0.81569344 2.3335826 100 0 0
-10.69843 2.4113138 2.2598958 100 0 0
-9.2573671 -0.106884 1.9909073 100 0 0
-10.307456 16.15687 -2.1378889 100 0 0
-8.4159479 7.7284899 -0.79232973 100 0 0
-11.797688 12.723105 -2.1534202 100 0 0
-8.7489576 10.844625 1.8664808 100 0 0
-8.0131855 3.3836951 -0.40580773 100 0 0
-11.506364 14.785557 -2.1646383 100 0 0
-9.3554888 -0.17498 -1.580094 100 0 0
-8.3554096 13.979502 0.072486416 100 0 0
-8.707655 3.7287791 -0.70480633 100 0 0
-11.867323 12.598683 2.0820804 100 0 0
-12.437604 3.0057802 1.6209484 100 0 0
-12.168172 3.1182179 -1.3620752 100 0 0
-12.24648 12.604385 0.46768209 100 0 0
-9.2811642 14.19875 -1.4830989 100 0 0
-13.249372 1.0962155 -0.51681256 100 0 0
-11.758765 9.8480711 2.2151067 100 0 0
-12.810659 8.3033438 -0.09585461 100 0 0
-12.542078 16.81506 -1.7287153 100 0 0
-8.7389536 11.362787 -1.7366648 100 0 0
-9.4410028 13.052383 -2.283016 100 0 0
-9.870203 12.545974 1.8365335 100 0 0
-12.444772 2.1103251 1.239832 100 0 0
-11.168856 9.8455868 2.2116525 100 0 0
-8.8027182 8.3062983 -0.015960867 100 0 0
-9.4619122 4.5571342 -1.8197027 100 0 0
-10.528716 7.2659364 -2.1759481 100 0 0
-10.554024 6.1338325 -2.3184872 100 0 0
-12.08123 12.874948 -1.4096718 100 0 0
-12.46352 8.9301958 -2.1718109 100 0 0
-9.9363298 14.376081 2.1072767 100 0 0
-10.146111 0.25191534 2.1718686 100 0 0
-12.846921 4.8117895 -0.83661389 100 0 0
-9.1658144 -0.014702354 1.5974401 100 0 0
-12.3915 13.475782 -1.6218206 100 0 0
-9.1231403 15.246176 2.1199064 100 0 0
-9.1062908 12.095366 -1.8386722 100 0 0
-11.172247 1.7772213 2.1297438 100 0 0
-12.950265 0.83840907 0.26743829 100 0 0
-12.386706 12.482404 2.018224 100 0 0
-8.6637888 2.4111817 -1.5985214 100 0 0
-12.137471 1.9352212 2.0010462 100 0 0
-9.7652254 4.3389778 1.9805247 100 0 0
-8.3895798 7.4549403 -1.6051255 100 0 0
-8.1935282 7.0292239 -0.17253339 100 0 0
-11.527898 3.3331349 1.734666 100 0 0
-12.890134 1.0644175 -0.53131014 100 0 0
-10.136635 4.5935907 -1.9869145 100 0 0
-11.881336 6.1682172 -2.383049 100 0 0
-9.0286274 16.191635 -0.7440263 100 0 0
-11.490799 1.2955092 2.2878618 100 0 0
-12.776575 11.139151 -0.87080669 100 0 0
-8.4640303 8.8285942 -0.40087241 100 0 0
-9.4548006 4.8030992 -1.2561134 100 0 0
-13.214352 5.8524609 -2.0202699 100 0 0
-11.306675 14.156297 2.1827004 100 0 0
-12.871439 1.4384462 -0.81156188 100 0 0
-10.955379 9.3097382 2.2015152 100 0 0
-9.6102648 5.0058527 1.2522236 100 0 0
-11.563776 16.08284 -2.1118205 100 0 0
-10.728752 14.627436 -2.1378794 100 0 0
-13.323443 11.254196 0.47857463 100 0 0
-8.4935436 12.460412 0.15231869 100 0 0
-8.5548582 15.619096 -0.7076534 100 0 0
-12.626059 3.3959873 1.0742648 100 0 0
-8.5027561 7.0443087 0.55598933 100 0 0
-8.9738712 2.9171765 0.26350528 100 0 0
-9.8394747 10.101773 2.280417 100 0 0
-8.8661051 9.2830238 -1.4494646 100 0 0
-12.658873 7.9145532 -1.0669354 100 0 0
-11.345547 13.84553 -1.5761566 100 0 0
-9.0598364 8.7014256 -1.3283069 100 0 0
-11.273155 5.4431205 -2.1602552 100 0 0
-12.534513 12.628905 1.9712569 100 0 0
-13.674007 2.8725295 -0.12013705 100 0 0
-10.425316 0.64952582 2.235688 100 0 0
-8.2071266 13.601551 0.44819728 100 0 0
-10.563035 17.056364 2.3015769 100 0 0
-9.7727442 6.0338993 -2.0069389 100 0 0
-12.740549 10.273697 1.3807117 100 0 0
-8.0168495 14.935071 -0.1140142 100 0 0
-8.6513596 7.2461681 -1.4441465 100 0 0
-11.810057 16.348482 -1.4475175 100 0 0
-10.237052 9.1779137 2.1159408 100 0 0
-14.388713 3.3990228 0.1201981 100 0 0
-9.9120235 10.629681 1.9310635 100 0 0
-12.620559 5.0983925 -0.74659896 100 0 0
-10.394113 10.182368 1.685706 100 0 0
-10.345204 8.5941057 2.2074842 100 0 0
-9.5988817 0.88314885 -1.6403898 100 0 0
-10.233985 4.0749922 -2.1760964 100 0 0
-10.242265 9.1217251 -2.1897497 100 0 0
-10.785691 7.6163673 2.2333412 100 0 0
-11.818681 9.8144569 1.819375 100 0 0
-10.594776 3.3987169 -1.4877833 100 0 0
-12.225855 12.286884 1.9816842 100 0 0
-11.36065 6.7367592 -2.2230828 100 0 0
-8.7343616 6.5111213 0.54643261 100 0 0
-13.462963 9.505043 -0.2762593 100 0 0
-8.6297283 4.1718006 0.64408362 100 0 0
-10.294609 17.322683 2.0718641 100 0 0
-12.509796 10.82337 -0.92080557 100 0 0
-8.6615267 10.730193 1.4905813 100 0 0
-13.228857 3.275511 -0.70711404 100 0 0
-10.475288 2.5258098 2.428916 100 0 0
-12.675167 12.728675 -1.9106718 100 0 0
-8.564394 5.5933042 1.6800873 100 0 0
-12.094559 15.020963 -1.8272817 100 0 0
-13.20407 15.491348 -0.14000335 100 0 0
-12.892353 11.182567 0.014539227 100 0 0
-8.8477259 3.02618 0.097258165 100 0 0
-8.6733494 6.8450508 0.25356942 100 0 0
-13.960388 1.2273695 1.0591432 100 0 0
-10.311056 -0.63468522 -1.8358585 100 0 0
-13.206564 16.342773 -0.11035961 100 0 0
-10.361808 7.6541467 -1.4393365 100 0 0
-9.2729893 11.888442 1.7616929 100 0 0
-9.5135145 12.638401 -1.5003107 100 0 0
-10.10037 13.730474 2.292912 100 0 0
-11.715395 15.984909 1.7896821 100 0 0
-10.388342 8.7706442 2.3785126 100 0 0
-12.415709 9.1336203 -0.5572713 100 0 0
-8.5270233 5.1162829 1.6458845 100 0 0
-10.560241 5.6955667 2.3459663 100 0 0
-10.662988 1.4808102 2.1527321 100 0 0
-8.0726624 10.821281 0.638906 100 0 0
-9.7243853 15.736249 -1.4061632 100 0 0
-13.375871 8.4742584 -0.15615265 100 0 0
-8.4732132 2.8323398 -0.98368067 100 0 0
-12.287766 8.410552 -1.7453685 100 0 0
-11.502724 0.89778548 -2.0971992 100 0 0
-12.26811 5.7260823 1.5066831 100 0 0
-9.4420462 8.9598207 1.642395 100 0 0
-9.2539463 10.466823 1.0285548 100 0 0
-10.306254 12.602798 -1.9480506 100 0 0
-12.500084 12.983972 0.015358627 100 0 0
-9.0302563 14.139237 -1.6479529 100 0 0
-8.1310673 13.112824 0.10539688 100 0 0
-12.879017 9.6670017 -0.89092535 100 0 0
-8.5159092 11.936859 1.0267583 100 0 0
-8.7568893 12.457739 0.44585356 100 0 0
-13.426056 4.5448737 0.99269193 100 0 0
-12.687364 3.3261914 2.1587961 100 0 0
-9.1191025 3.4880648 0.99651331 100 0 0
-12.754147 10.768025 -0.98600012 100 0 0
-10.581457 7.4308376 2.0400107 100 0 0
-9.7531757 9.8681221 2.1128275 100 0 0
-11.689615 6.9123082 1.9512445 100 0 0
-12.722694 11.619744 -1.2774621 100 0 0
-10.960492 12.99183 2.2517889 100 0 0
-12.218568 4.6704283 -1.4226762 100 0 0
-9.6579924 16.572235 -1.1532211 100 0 0
-12.73705 7.8120551 -2.0304251 100 0 0
-8.7038288 -0.72060889 1.4962718 100 0 0
-11.841268 14.876823 1.5882335 100 0 0
-10.439407 -0.34784555 -2.1990998 100 0 0
-11.294103 10.322135 1.8783189 100 0 0
-8.1147976 12.474329 0.12725814 100 0 0
-11.681136 7.5310068 2.4722741 100 0 0
-8.2941828 11.903172 0.19205379 100 0 0
-8.0016632 13.334057 -0.94033605 100 0 0
-10.210855 12.716703 -2.0448503 100 0 0
-7.871624 17.190769 -1.2745997 100 0 0
-14.170454 7.9413819 1.1983874 100 0 0
-12.708745 0.32452577 0.89708626 100 0 0
-10.651989 11.576666 -2.032357 100 0 0
-10.897527 1.5860958 -2.1135194 100 0 0
-12.599813 1.8006126 0.35738423 100 0 0
-10.030553 4.5420432 -1.8589288 100 0 0
-13.273419 3.3838754 1.3945645 100 0 0
-11.271005 3.7000735 2.2587545 100 0 0
-12.160492 3.8337669 0.60874361 100 0 0
-12.344302 15.864604 1.2880082 100 0 0
-11.928194 6.8386273 0.74644893 100 0 0
-12.323415 16.798565 -1.8782747 100 0 0
-13.471453 9.7699747 -0.88764054 100 0 0
-12.493685 11.293058 -0.48252803 100 0 0
-10.006973 15.282486 -2.4410155 100 0 0
-13.169645 11.379731 -0.21769406 100 0 0
-13.558508 3.2065158 0.60130984 100 0 0
-10.084507 7.4076085 -2.1296163 100 0 0
-9.2465105 4.9595661 1.7751796 100 0 0
-12.551338 14.560673 1.2765216 100 0 0
-12.711512 10.773926 1.8944765 100 0 0
-7.9944186 3.2424829 -0.47644484 100 0 0
-10.33596 0.29517424 -2.2347898 100 0 0
-13.437072 6.7313132 1.1593794 100 0 0
-11.549206 4.9260869 1.8699898 100 0 0
-12.740825 12.117765 -0.47653326 100 0 0
-10.867872 11.243014 2.4714906 100 0 0
-12.22249 2.331609 0.1948861 100 0 0
-9.1427984 16.221962 2.1043143 100 0 0
-9.5005236 12.377499 1.7179112 100 0 0
-10.751526 11.21069 2.4457331 100 0 0
-9.325264 3.1765118 -1.6844269 100 0 0
-12.910232 5.464828 -0.29115415 100 0 0
-9.4165354 -0.75445193 -1.5841881 100 0 0
-11.392839 2.4794652 -2.1893785 100 0 0
-12.904978 10.17649 -0.24910451 100 0 0
-8.8644962 12.741772 1.2213972 100 0 0
-9.7174597 12.033772 -1.9275315 100 0 0
-8.2301416 13.382597 0.41653776 100 0 0
-8.8785229 17.738848 1.4556006 100 0 0
-13.088916 0.56933522 0.37834218 100 0 0
-12.421964 11.958403 -1.3047582 100 0 0
-8.998518 3.1876566 1.8077314 100 0 0
-12.864902 12.202453 -1.6453276 100 0 0
-12.633138 10.364917 -1.9333488 100 0 0
-8.6723938 11.071527 -0.97082812 100 0 0
-8.2964354 4.1068544 -0.22293806 100 0 0
-10.632341 14.740309 2.1151409 100 0 0
-13.230309 -0.32083949 -1.2592804 100 0 0
-8.471776 8.9253702 0.92175186 100 0 0
-9.0365028 16.109247 1.1726066 100 0 0
-7.9718647 0.32675254 0.082359307 100 0 0
-9.5063705 13.878697 -2.1319387 100 0 0
-8.6458149 14.620115 0.93493348 100 0 0
-11.067446 11.989655 1.6122875 100 0 0
-8.4958363 1.7832457 0.44733113 100 0 0
-12.077283 5.2291231 -0.67091066 100 0 0
-9.5965796 3.3886013 2.107898 100 0 0
-12.735721 -0.67104262 0.34267214 100 0 0
-12.745882 -0.059371885 -0.36726204 100 0 0
-12.435733 2.0045102 0.039359193 100 0 0
-12.792442 4.4927044 -1.5667686 100 0 0
-9.9212742 13.36868 -2.3951952 100 0 0
-12.487425 16.847525 0.61870259 100 0 0
-12.894581 10.113878 -0.97706187 100 0 0
-9.6327477 7.0811949 -1.7127259 100 0 0
-10.685546 14.445695 -2.1933994 100 0 0
-12.569592 3.7827733 -0.056994833 100 0 0
-9.6624889 13.320658 -2.1216288 100 0 0
-9.5817909 5.2623601 -2.2021718 100 0 0
-13.022425 7.0525966 -0.29677019 100 0 0
-13.049764 5.4912753 0.54328763 100 0 0
-9.3795557 -0.36847967 2.237417 100 0 0
-8.0581551 4.855824 -0.90941489 100 0 0
-10.441377 -0.065420754 2.4324915 100 0 0
-10.335116 1.3893141 -2.2723548 100 0 0
-12.642719 13.33415 0.35574201 100 0 0
-11.440061 8.654314 1.8530201 100 0 0
-11.399432 3.8541625 -1.842644 100 0 0
-9.0698156 11.016294 -0.54409659 100 0 0
-12.963366 16.230204 1.7971314 100 0 0
-8.4420576 13.190419 -0.75678807 100 0 0
-12.037144 9.2649393 -2.310617 100 0 0
-13.507217 14.475244 1.1587187 100 0 0
-8.9604254 16.192404 1.5807252 100 0 0
-10.276921 3.5684085 2.1992569 100 0 0
-13.181897 8.7308617 -1.952951 100 0 0
-9.1949301 6.8425946 1.3591286 100 0 0
-10.368197 3.3162856 -2.1195517 100 0 0
-7.4394846 6.4487162 -0.43390834 100 0 0
-11.948544 0.33830005 1.3262099 100 0 0
-13.112917 7.0078545 0.34384578 100 0 0
-9.4078493 3.4819992 -1.9236991 100 0 0
-9.3150206 6.2275934 2.0330036 100 0 0
-10.075713 12.43546 1.8925415 100 0 0
-10.350986 15.037354 2.0792763 100 0 0
-9.0792637 13.927295 1.5645709 100 0 0
-10.847792 0.51413953 -2.1700118 100 0 0
-12.188014 10.133897 -1.626653 100 0 0
-12.314415 5.6592054 -0.36932525 100 0 0
-11.451754 15.311122 2.3589926 100 0 0
-14.05687 4.4948726 1.1784283 100 0 0
-11.924112 11.922847 1.5676824 100 0 0
-11.384874 10.09635 2.068989 100 0 0
-11.458827 12.408802 2.1685822 100 0 0
-12.325381 13.217362 1.2537265 100 0 0
-13.574329 9.2275486 0.48762971 100 0 0
-8.6488981 2.1933503 -0.79349905 100 0 0
-9.0356884 3.7298732 2.0069711 100 0 0
-9.9386539 15.623074 -1.8902006 100 0 0
-9.4899321 9.2462234 -2.0272777 100 0 0
-13.169407 9.3046122 -0.63002008 100 0 0
-8.5173731 -0.70677173 -0.4950608 100 0 0
-10.931531 2.7337971 -2.3686619 100 0 0
-12.142582 4.0752568 1.5371307 100 0 0
-7.2702494 5.806982 -0.59398556 100 0 0
-12.846994 4.4151859 -1.7948357 100 0 0
-10.137688 2.1209059 1.47605 100 0 0
-12.53872 10.205681 0.45675376 100 0 0
-13.248269 3.9674482 0.93170762 100 0 0
-9.1844511 1.8075675 -0.49375072 100 0 0
-13.346433 12.781404 0.6068089 100 0 0
-11.516657 3.4644215 1.472626 100 0 0
-12.468765 10.068921 -1.4315882 100 0 0
-12.756883 15.526192 1.5940464 100 0 0
-9.2875824 13.196801 -1.6809596 100 0 0
-10.208025 4.9737463 2.0785732 100 0 0
-11.107041 4.6853108 -2.0403168 100 0 0
-8.5149775 15.212366 -1.0833572 100 0 0
-12.292197 5.160193 -0.91484648 100 0 0
-10.542052 11.181851 1.8454871 100 0 0
-8.7129278 15.964288 -0.23972088 100 0 0
-13.132267 9.0169992 0.65322345 100 0 0
-7.5449495 17.866547 -0.67338234 100 0 0
-9.59058 0.088545084 -1.9354973 100 0 0
-10.959853 1.7480264 2.2226145 100 0 0
-9.0080547 10.489011 -1.7152097 100 0 0
-8.3158913 1.7067654 -0.62908477 100 0 0
-12.9762 13.127586 -0.010199907 100 0 0
-11.482395 7.0130272 -2.1173666 100 0 0
-11.805202 14.447452 1.7429756 100 0 0
-11.317409 15.494045 2.3278491 100 0 0
-8.2973299 7.593287 0.68709421 100 0 0
-12.75351 7.907485 -1.2889887 100 0 0
-9.8825998 0.17429993 -1.9828968 100 0 0
-9.8345308 2.3597026 -2.3204112 100 0 0
-10.418103 6.4591851 -2.0332093 100 0 0
-11.29056 2.4743893 2.2075715 100 0 0
-12.569598 6.0075269 1.2962052 100 0 0
-11.820785 9.1787844 -1.8301088 100 0 0
-13.337745 12.742568 0.47617543 100 0 0
-10.454468 -0.67227066 -2.2606115 100 0 0
-8.7657766 9.4754772 0.66487718 100 0 0
-11.487835 8.9398413 -1.9620093 100 0 0
-11.360887 2.9020238 2.2809472 100 0 0
-10.398886 13.614899 2.3720903 100 0 0
-12.5682 13.924266 1.1344337 100 0 0
-9.1653214 9.1300163 1.3925596 100 0 0
-8.2380533 5.0911264 -0.55680591 100 0 0
-8.6340322 0.89601558 -0.48451671 100 0 0
-12.742805 15.208581 -1.8248332 100 0 0
-8.9770784 12.31977 1.8253869 100 0 0
-14.535344 3.9429188 -0.27809492 100 0 0
-9.3145533 -0.16192287 1.7572412 100 0 0
-8.7015343 12.164262 -0.18407536 100 0 0
-9.1620045 11.517343 -1.9560016 100 0 0
-8.3075838 -0.050582256 0.97189957 100 0 0
-13.397596 8.5067186 0.5329448 100 0 0
-8.2048855 15.680509 0.33683261 100 0 0
-10.00072 3.649431 2.293396 100 0 0
-9.247777 7.2695951 -1.8589044 100 0 0
-9.6309147 15.47265 1.9197603 100 0 0
-13.19842 6.5806961 0.50252759 100 0 0
-9.6656885 5.9526315 -1.7905887 100 0 0
-8.1858921 13.200811 -1.3240473 100 0 0
