ply
format ascii 1.0
comment PCL generated
element vertex 1195
property float x
property float y
property float z
property uchar red
property uchar green
property uchar blue
element camera 0
property float view_px
property float view_py
property float view_pz
property float x_axisx
property float x_axisy
property float x_axisz
property float y_axisx
property float y_axisy
property float y_axisz
property float z_axisx
property float z_axisy
property float z_axisz
property float focal
property float scalex
property float scaley
property float centerx
property float centery
property int viewportx
property int viewporty
property float k1
property float k2
end_header
-12.42172 13.856421 -0.74289942 100 0 0
-10.587885 15.68993 2.2331259 100 0 0
-7.3114147 5.9932208 -1.1785408 100 0 0
-13.028184 8.5287504 -0.94115615 100 0 0
-11.493096 0.63143176 -0.80482233 100 0 0
-8.2531891 5.9136724 1.1824827 100 0 0
-11.918164 15.348479 2.2187331 100 0 0
-11.872638 2.3088965 -1.9984363 100 0 0
-8.5750389 10.413945 1.7335883 100 0 0
-9.0351305 11.344605 1.812292 100 0 0
-10.931916 2.8227804 1.9776732 100 0 0
-12.209431 3.2543046 1.0515574 100 0 0
-13.354594 12.825911 0.97147852 100 0 0
-8.5506458 2.6041551 0.019267706 100 0 0
-10.655959 4.883121 -2.2306185 100 0 0
-10.450893 10.657366 -2.0625839 100 0 0
-12.40667 2.2375863 -1.6342221 100 0 0
-10.571551 13.828218 -2.22577 100 0 0
-7.9316649 7.9836092 1.5596468 100 0 0
-12.375089 3.5847018 -0.80714983 100 0 0
-8.3329477 3.7378249 -0.44779798 100 0 0
-8.8210716 1.7138398 -1.8771515 100 0 0
-8.1375971 1.8067772 -0.93380558 100 0 0
-7.6684318 1.5225174 0.79517221 100 0 0
-9.4055538 6.8885446 -1.9304698 100 0 0
-9.9201756 8.3560114 -2.2509382 100 0 0
-9.176651 5.1866636 1.9271839 100 0 0
-13.405639 8.7749243 -0.82387793 100 0 0
-10.586517 1.4918309 -2.0888717 100 0 0
-14.135407 13.061186 -0.94314885 100 0 0
-8.623024 11.47916 1.1231227 100 0 0
-9.814518 4.8847585 -1.8659197 100 0 0
-8.311944 8.9073725 0.58646482 100 0 0
-12.004357 6.9694862 -1.4585265 100 0 0
-9.4664688 3.9321966 1.5868 100 0 0
-9.0709581 3.6711783 1.4508266 100 0 0
-12.401357 0.44804835 -2.019438 100 0 0
-8.0716972 5.8152113 1.0664024 100 0 0
-8.8857889 6.9469481 -0.61316472 100 0 0
-12.671718 14.424296 0.89553571 100 0 0
-11.116181 10.738235 -2.0769083 100 0 0
-8.0038624 9.4750919 -0.42972106 100 0 0
-10.190175 15.122381 -2.1484852 100 0 0
-12.949924 3.0140526 0.78980905 100 0 0
-8.9733877 10.575418 0.83462572 100 0 0
-12.60419 11.11535 1.76221 100 0 0
-8.7320967 2.7280138 1.5119075 100 0 0
-8.7426577 9.059494 -1.309507 100 0 0
-13.801719 13.558435 -0.17556036 100 0 0
-8.0438776 9.5705004 0.64808834 100 0 0
-9.0714521 6.167573 0.7733925 100 0 0
-12.519741 5.3766818 -0.31299365 100 0 0
-11.073699 4.4051228 2.0410581 100 0 0
-11.073266 8.0842199 1.9985778 100 0 0
-12.026649 13.595335 -1.2708533 100 0 0
-7.7945223 0.87323827 0.39974892 100 0 0
-11.430179 11.56812 1.8935239 100 0 0
-13.070964 4.209229 -1.046628 100 0 0
-11.648736 15.001938 1.3601604 100 0 0
-11.952862 8.8071747 0.45243707 100 0 0
-12.742268 12.398613 1.6364777 100 0 0
-9.4955931 12.157884 2.130044 100 0 0
-10.298166 13.217342 -2.3920901 100 0 0
-9.1398697 4.7126966 1.4654952 100 0 0
-8.9683876 9.5474777 -1.6433865 100 0 0
-9.5780792 6.4952536 1.9961164 100 0 0
-8.9111471 9.3344946 1.4020914 100 0 0
-13.306228 11.131632 1.4543604 100 0 0
-8.8901463 11.939943 1.2489622 100 0 0
-9.9536133 0.022498997 2.1420317 100 0 0
-9.89361 7.6796908 1.4680194 100 0 0
-13.075433 7.5712023 -0.69874239 100 0 0
-12.409238 9.9123898 0.900415 100 0 0
-12.246185 2.0221961 -0.6236617 100 0 0
-10.413714 7.5981355 2.0528502 100 0 0
-10.436564 12.634464 -2.2593622 100 0 0
-11.307872 5.6820135 2.0867388 100 0 0
-8.8247108 2.6404562 0.72517294 100 0 0
-9.7426643 12.774219 -1.7546432 100 0 0
-10.301563 0.85246426 2.3381624 100 0 0
-11.800391 8.9897089 1.9022834 100 0 0
-8.4062757 0.41184685 1.0504451 100 0 0
-8.9012928 -0.65571612 0.76363724 100 0 0
-13.077977 5.4752693 -0.71845341 100 0 0
-9.6778641 1.2469673 -1.8890661 100 0 0
-12.732759 11.278451 -0.92827374 100 0 0
-11.080788 6.7229819 -2.243463 100 0 0
-11.895792 7.8300967 -1.4571888 100 0 0
-9.6617365 2.6090899 -1.9562265 100 0 0
-10.504045 4.1747899 -2.2483799 100 0 0
-7.8642693 -0.47694087 -1.280762 100 0 0
-12.627569 3.168329 -1.3967339 100 0 0
-8.0954437 2.6874189 1.3096575 100 0 0
-8.751606 5.5764027 1.5320966 100 0 0
-9.9174099 3.2842824 -2.2431047 100 0 0
-9.7069426 8.2855921 -0.90277857 100 0 0
-9.5955086 14.902101 -2.1196022 100 0 0
-12.605549 2.5578606 1.1320957 100 0 0
-9.7818832 1.6673836 2.3251858 100 0 0
-11.04562 1.3648733 2.2932456 100 0 0
-9.8409548 11.496795 -2.1867712 100 0 0
-8.1383591 6.3358107 -1.4471358 100 0 0
-8.9623661 7.7063141 1.6725179 100 0 0
-8.4173384 12.331831 -0.5664587 100 0 0
-9.1438894 5.49474 -1.2801505 100 0 0
-10.163089 3.9365466 2.3019123 100 0 0
-9.9183302 8.2800694 -2.2022097 100 0 0
-9.8501434 4.5621543 -2.1681502 100 0 0
-12.824294 14.641705 1.7841209 100 0 0
-10.507899 1.3486496 1.9278204 100 0 0
-8.8037024 5.4238625 -1.1279026 100 0 0
-13.617425 3.2706745 0.38714591 100 0 0
-8.3671684 16.330809 0.89168876 100 0 0
-9.9800014 3.779639 -2.3270652 100 0 0
-8.3887634 0.25445303 1.2258242 100 0 0
-9.5978909 0.14685284 -1.1178187 100 0 0
-9.6234913 4.2659416 -2.121654 100 0 0
-12.442842 11.796221 1.2031399 100 0 0
-12.391657 15.572293 1.0983908 100 0 0
-12.066651 14.098115 -1.3481965 100 0 0
-10.695344 1.944231 -2.2956686 100 0 0
-10.354712 5.7137952 -2.126061 100 0 0
-9.9647579 10.989545 2.26104 100 0 0
-10.451359 3.8455093 2.3306441 100 0 0
-8.8787537 14.71266 -1.1037978 100 0 0
-7.6390505 13.092921 0.79414058 100 0 0
-12.988849 3.1214547 -0.59665745 100 0 0
-9.847332 11.885095 2.2898171 100 0 0
-13.003048 5.1200848 1.2210791 100 0 0
-12.035974 9.1631985 1.1852485 100 0 0
-11.796237 8.9412451 0.4097023 100 0 0
-13.108805 5.6779828 1.467405 100 0 0
-8.2044935 1.3081186 0.67972863 100 0 0
-12.573103 9.1469193 -1.0207883 100 0 0
-8.3052425 13.125273 -0.62802005 100 0 0
-9.4246626 7.9387784 1.0189091 100 0 0
-8.6602278 1.7438521 2.0188696 100 0 0
-8.5412216 7.4890637 0.70579952 100 0 0
-13.395078 10.388212 0.033638537 100 0 0
-9.4300976 9.9215641 -1.5774488 100 0 0
-11.694694 7.3117514 -0.44489765 100 0 0
-11.968523 -0.43002799 1.8197683 100 0 0
-10.310336 9.5220623 -2.193903 100 0 0
-8.6191034 10.021905 -0.55017215 100 0 0
-12.505255 5.2121501 -1.2204107 100 0 0
-9.8739014 0.60373819 -2.1664114 100 0 0
-10.815072 1.1074226 0.7559011 100 0 0
-11.207651 2.7636797 1.8804015 100 0 0
-8.1334782 10.778409 -0.90352124 100 0 0
-12.820401 7.6958876 -1.4601814 100 0 0
-8.4658356 13.592296 -0.45863333 100 0 0
-10.258774 12.941483 -2.485003 100 0 0
-10.657546 -0.013622431 -2.1786902 100 0 0
-8.4296875 3.091399 1.6206725 100 0 0
-9.1149397 9.4977856 1.6157537 100 0 0
-12.391059 0.64563757 -2.0028234 100 0 0
-9.7575388 7.3097801 -2.3506007 100 0 0
-8.6410503 2.2773128 1.7004554 100 0 0
-10.112429 3.2946792 -2.0722291 100 0 0
-8.6625462 4.1943808 1.8155186 100 0 0
-11.087111 2.6717227 -1.9576253 100 0 0
-9.5556068 10.16772 -1.8139391 100 0 0
-7.9385514 5.5403948 0.50389045 100 0 0
-11.233904 10.259398 2.4381607 100 0 0
-8.5694761 10.777896 1.4922026 100 0 0
-12.916084 1.5980058 -0.78981584 100 0 0
-11.9887 4.7731457 -1.9373692 100 0 0
-12.346045 2.8398926 -1.440449 100 0 0
-12.945395 8.7627783 0.57070774 100 0 0
-10.561255 3.197422 -1.9139998 100 0 0
-10.466388 1.5865749 2.3757706 100 0 0
-11.716575 6.6961756 -0.69660574 100 0 0
-9.2056913 6.7450533 0.52520585 100 0 0
-13.643965 6.877037 0.28516454 100 0 0
-9.4978323 1.2349395 -1.840866 100 0 0
-11.098375 11.378225 -2.083534 100 0 0
-8.8503637 1.4491512 -1.7500033 100 0 0
-10.726599 0.12890363 -2.4468038 100 0 0
-11.308768 2.9348788 -2.242152 100 0 0
-10.77539 10.201576 -2.2109108 100 0 0
-11.531151 2.9070449 2.1125169 100 0 0
-14.098292 6.4252958 -0.3143982 100 0 0
-8.4789305 0.084919997 1.5007415 100 0 0
-10.657373 3.2631466 -2.0207479 100 0 0
-11.656578 1.8026507 -1.9142481 100 0 0
-8.0684929 6.1668901 0.43739969 100 0 0
-11.304762 -0.76320165 1.8710771 100 0 0
-13.37039 6.619606 0.19972512 100 0 0
-12.983769 12.136105 -1.0796357 100 0 0
-12.695354 4.5498309 1.5373075 100 0 0
-8.6733141 12.92184 0.65305978 100 0 0
-10.563212 14.696972 2.3297474 100 0 0
-8.6348381 7.3502588 -1.2793548 100 0 0
-8.2606268 10.301103 -0.11181639 100 0 0
-10.296569 11.182421 -2.3251092 100 0 0
-12.10768 8.8095083 1.480931 100 0 0
-11.565342 9.5648232 1.7979013 100 0 0
-11.822659 -0.31985295 1.6269623 100 0 0
-8.5986128 13.415798 0.067092001 100 0 0
-11.069676 2.3861749 -2.2875831 100 0 0
-12.165216 0.78433824 2.1607716 100 0 0
-8.3001471 2.664269 -1.6114113 100 0 0
-8.8327579 3.2290642 0.26754558 100 0 0
-9.7922735 2.150358 -2.2186012 100 0 0
-12.078449 0.61805058 -1.4872082 100 0 0
-11.567529 9.318696 1.2451072 100 0 0
-8.7078257 7.437644 -1.92004 100 0 0
-10.12226 0.58250469 -2.3243432 100 0 0
-8.487277 6.4994421 -0.92621297 100 0 0
-8.8560219 2.23173 0.86407393 100 0 0
-10.156758 5.8910298 -1.9441874 100 0 0
-12.23787 14.268066 -1.2305216 100 0 0
-8.8940144 15.40186 -2.2224672 100 0 0
-11.988289 8.3527994 -1.7883682 100 0 0
-9.6131754 10.255631 -1.9595228 100 0 0
-9.090167 13.602955 2.0234542 100 0 0
-11.958037 6.8535671 -1.6744806 100 0 0
-11.184287 3.4989135 -1.2532449 100 0 0
-13.151699 11.732279 -0.39944196 100 0 0
-8.4632845 9.4551992 0.30357569 100 0 0
-12.099995 2.3815989 0.78666645 100 0 0
-8.9010706 5.2397566 -1.7541871 100 0 0
-12.436072 6.4105077 -0.25895789 100 0 0
-11.907147 6.4878945 1.9840418 100 0 0
-11.435451 11.840263 2.2687781 100 0 0
-9.8150587 3.951256 2.0642121 100 0 0
-12.964997 12.203 0.96688503 100 0 0
-11.562152 5.4607234 1.8938113 100 0 0
-9.9637508 2.4118247 2.2913234 100 0 0
-9.8904591 6.4997349 2.0753005 100 0 0
-8.2323875 4.5295839 1.0160478 100 0 0
-8.5408249 7.1230512 -0.23139511 100 0 0
-8.9858198 0.68889987 -1.6377804 100 0 0
-10.133921 7.1722312 -2.1104493 100 0 0
-12.708226 7.4100261 1.2500799 100 0 0
-12.83532 6.9502234 0.67178118 100 0 0
-11.245019 11.979896 2.0757606 100 0 0
-10.503458 3.3139327 -2.2322636 100 0 0
-12.894485 12.963342 -1.9576663 100 0 0
-8.4605227 7.7735066 -1.7473253 100 0 0
-12.708284 0.16856183 0.71327794 100 0 0
-11.274357 10.194971 2.4630949 100 0 0
-8.9183197 -0.010931144 -1.2045159 100 0 0
-8.2244415 6.7708454 1.9805425 100 0 0
-11.624929 16.341656 -2.2544506 100 0 0
-11.59488 6.8721156 1.8577607 100 0 0
-10.890617 10.122273 2.2366612 100 0 0
-9.2539511 3.0771296 1.8497211 100 0 0
-12.158613 14.086861 -0.18031576 100 0 0
-7.7836866 11.010387 -0.8945809 100 0 0
-12.582297 5.6193004 1.0073032 100 0 0
-12.685063 10.718778 1.0765859 100 0 0
-9.1024542 2.2445614 -1.9426553 100 0 0
-8.5982952 15.874143 0.69596881 100 0 0
-13.622737 13.882787 -0.37076437 100 0 0
-13.850863 2.3358524 -0.52294505 100 0 0
-11.492793 8.612215 2.2527347 100 0 0
-10.147012 11.464311 2.2801504 100 0 0
-11.876318 10.766191 -1.6266168 100 0 0
-9.1071901 2.5350091 -1.9560702 100 0 0
-9.1128092 8.8264732 0.90523469 100 0 0
-12.691115 12.294868 1.1964796 100 0 0
-8.7255964 14.243332 -1.8294749 100 0 0
-10.879026 1.104432 2.1907122 100 0 0
-12.021892 2.7722602 1.525691 100 0 0
-12.664667 7.6866121 -1.5464878 100 0 0
-12.818105 14.440866 0.39780235 100 0 0
-9.2934713 10.392216 2.0914001 100 0 0
-12.555571 3.8474512 -0.80006993 100 0 0
-10.480543 8.8600178 2.46855 100 0 0
-9.0601816 15.298871 1.9200612 100 0 0
-12.07215 12.957861 -1.7955574 100 0 0
-8.9850245 7.346478 1.0903387 100 0 0
-10.955245 0.65702593 2.191731 100 0 0
-12.578698 12.801711 0.32663283 100 0 0
-11.847213 2.1481941 1.849056 100 0 0
-11.270542 7.3871694 2.1210678 100 0 0
-13.053672 -0.049515508 -0.30936438 100 0 0
-10.744586 14.219272 2.3503923 100 0 0
-9.0455513 8.9287024 0.64750576 100 0 0
-10.437104 12.833528 -2.1980832 100 0 0
-8.7204142 8.4778719 -1.8206559 100 0 0
-10.329073 4.9818387 -2.1121008 100 0 0
-11.306191 2.7525132 2.1784596 100 0 0
-10.351055 6.4153671 2.1085196 100 0 0
-11.726963 8.3384542 -1.0496321 100 0 0
-11.995358 6.5164657 -0.51934522 100 0 0
-12.739241 9.4196587 0.20059416 100 0 0
-12.32188 5.5601115 -1.7743082 100 0 0
-10.630538 9.9742966 -2.0652924 100 0 0
-11.983706 5.411211 1.6273777 100 0 0
-9.0751143 1.6086025 -1.8815328 100 0 0
-13.5106 3.1100423 0.45499116 100 0 0
-7.8440003 9.2114801 1.3713431 100 0 0
-8.0362902 0.95620388 0.05132664 100 0 0
-13.498486 13.675168 -0.58958554 100 0 0
-10.580251 -0.60129291 1.6491508 100 0 0
-8.6777029 2.6931772 -1.0488837 100 0 0
-12.925992 6.0267658 1.0621703 100 0 0
-11.668608 12.837832 1.4511762 100 0 0
-9.2289639 0.42793459 1.8292289 100 0 0
-8.8564463 1.4063704 -2.1305425 100 0 0
-8.4661045 6.4347639 0.1115585 100 0 0
-8.2634525 1.1964747 -1.4604095 100 0 0
-11.687197 9.8284798 -2.1322658 100 0 0
-9.0915194 3.9028318 -1.1233664 100 0 0
-8.9242487 1.4176151 -1.0639793 100 0 0
-8.8224316 8.2312546 -0.81316721 100 0 0
-13.104285 4.0027142 -0.54394299 100 0 0
-8.3098392 2.9284239 -0.35027769 100 0 0
-10.246975 10.781717 2.2093654 100 0 0
-10.660714 3.4981797 2.1592543 100 0 0
-11.233106 9.0183268 -2.1921964 100 0 0
-12.903835 -0.10874791 0.82477945 100 0 0
-12.836692 5.3367314 -1.6147777 100 0 0
-13.046445 4.4757648 -0.96579713 100 0 0
-9.4435472 0.11276577 -1.6668363 100 0 0
-8.6996317 3.9349992 0.73682296 100 0 0
-11.998489 14.204861 -1.4092495 100 0 0
-10.615121 14.733766 2.2651701 100 0 0
-12.555671 6.9006906 0.53141123 100 0 0
-9.324069 3.2179363 -2.1173964 100 0 0
-8.9329748 6.5566797 1.478232 100 0 0
-10.744409 9.0642509 -2.4014101 100 0 0
-9.0708761 13.393061 -1.2363653 100 0 0
-12.897966 3.9563115 -0.86274856 100 0 0
-9.6485834 0.43364611 2.1434586 100 0 0
-11.123758 3.5884941 2.2070899 100 0 0
-10.380952 10.087049 -2.2329421 100 0 0
-8.3512106 3.2478697 -2.0239794 100 0 0
-8.5053482 -0.029021174 1.0591873 100 0 0
-13.269611 6.2953377 -1.3207731 100 0 0
-9.8598309 14.814822 1.9484954 100 0 0
-9.6508951 8.5450153 -2.1250196 100 0 0
-11.956562 9.1367798 1.7961956 100 0 0
-13.701046 0.56389225 0.047200434 100 0 0
-10.460316 4.9212785 2.1015849 100 0 0
-10.849534 0.97659218 2.0045419 100 0 0
-9.695693 6.1741257 -1.9677147 100 0 0
-11.09299 0.32502091 2.2422197 100 0 0
-11.562559 0.14539178 -1.4913429 100 0 0
-9.2791357 10.506564 2.0134864 100 0 0
-9.3812284 3.2632535 1.6817697 100 0 0
-11.600868 1.6824831 2.0802 100 0 0
-8.2126656 0.3155562 0.69181836 100 0 0
-7.8722019 1.1670341 0.3319695 100 0 0
-10.278093 2.420126 -1.9912726 100 0 0
-11.108084 4.6990328 2.2066519 100 0 0
-11.746585 3.1080453 0.177999 100 0 0
-8.1185188 15.895123 0.47178322 100 0 0
-9.1573343 15.3935 1.5521787 100 0 0
-9.4237528 11.193151 1.9361098 100 0 0
-8.146965 1.6864984 1.0093336 100 0 0
-8.8371077 12.39229 -1.744922 100 0 0
-11.875543 9.1819334 1.836782 100 0 0
-13.228592 5.4799404 1.205834 100 0 0
-12.33212 1.0941727 -1.9343507 100 0 0
-10.12204 2.3991218 2.1678181 100 0 0
-11.939366 5.1367164 -1.9388039 100 0 0
-12.088316 9.858798 0.90048653 100 0 0
-13.055484 6.185946 0.30392113 100 0 0
-9.9498367 8.7912617 -1.7193651 100 0 0
-9.0331926 12.999866 1.9831166 100 0 0
-12.853084 7.0321488 -1.2167902 100 0 0
-8.8272047 1.2334872 -1.3558828 100 0 0
-12.16059 2.0449383 0.75813669 100 0 0
-11.26895 11.967021 -1.9188309 100 0 0
-8.7083864 12.577796 -1.7374192 100 0 0
-10.2298 12.571639 2.2142532 100 0 0
-11.613564 2.2985964 -2.0108645 100 0 0
-12.495415 -0.64040101 0.8705005 100 0 0
-8.8441401 9.7934084 1.8189883 100 0 0
-8.3706656 0.68329167 0.19561502 100 0 0
-9.0884962 8.0358953 1.9986516 100 0 0
-8.1661005 7.857687 -1.4987043 100 0 0
-9.7057896 9.0625219 1.9622324 100 0 0
-9.0734463 7.8082848 2.013195 100 0 0
-11.540133 16.03159 -1.0871627 100 0 0
-10.838638 8.998291 -2.1953585 100 0 0
-9.5006542 2.7022946 1.5877963 100 0 0
-10.61694 -0.13130489 -2.1810639 100 0 0
-10.41019 11.73957 -2.5715096 100 0 0
-12.204695 2.7373099 1.6982315 100 0 0
-12.29942 15.402267 -1.0583111 100 0 0
-10.839041 1.0448264 2.4478934 100 0 0
-8.3461637 12.763824 -1.3287908 100 0 0
-10.369493 6.6466522 -2.1429408 100 0 0
-13.268745 5.8468366 -0.14060488 100 0 0
-12.742101 8.8977299 -0.37472481 100 0 0
-11.388581 7.6709027 0.82770556 100 0 0
-10.733854 8.2138195 -2.0169079 100 0 0
-9.6106339 5.6995916 -2.1450603 100 0 0
-11.652611 2.6843512 -0.19744483 100 0 0
-8.6263275 4.8777351 1.4211831 100 0 0
-9.138545 12.764979 1.5890356 100 0 0
-12.619523 11.426355 0.22403759 100 0 0
-12.594533 8.8459892 -1.6046313 100 0 0
-10.466021 3.8378651 2.0959768 100 0 0
-10.583346 15.684529 2.3056369 100 0 0
-9.6778536 6.6124635 -2.0145698 100 0 0
-11.456704 13.038484 -2.2469506 100 0 0
-11.703327 5.3639245 2.0548334 100 0 0
-10.786977 4.9740539 -2.3467152 100 0 0
-8.7061834 12.949614 1.2212218 100 0 0
-13.160485 11.102267 0.5577867 100 0 0
-11.92733 13.371921 -2.2387183 100 0 0
-8.4754229 15.962288 1.1786344 100 0 0
-10.641978 5.2761612 -2.0944097 100 0 0
-10.035671 8.89785 1.9697094 100 0 0
-9.4704475 5.4460454 2.1522202 100 0 0
-7.525825 12.236954 -1.2294496 100 0 0
-8.6332006 5.3990006 0.80734473 100 0 0
-11.888165 -0.64788699 1.0773683 100 0 0
-11.467361 1.8928354 1.6490017 100 0 0
-12.983561 8.6883583 0.31837392 100 0 0
-8.1784782 2.9698973 0.97542959 100 0 0
-8.7541265 4.8541002 0.41906601 100 0 0
-9.1096487 0.79561257 1.1893911 100 0 0
-9.4335823 10.655916 -2.254627 100 0 0
-11.461129 8.3797235 -1.2174386 100 0 0
-8.1718225 8.3933773 -0.18511797 100 0 0
-11.696876 5.6523843 -1.8875742 100 0 0
-12.635551 10.672748 1.7058836 100 0 0
-13.459281 2.1228511 -1.3198076 100 0 0
-12.853392 10.91787 0.33398411 100 0 0
-8.0825586 5.5198765 1.7762777 100 0 0
-8.2637167 14.791425 0.54667252 100 0 0
-9.3091583 0.38238949 -1.911466 100 0 0
-10.251652 11.220129 -2.0624332 100 0 0
-8.8751278 11.435946 1.4160039 100 0 0
-11.890157 12.583627 -2.0130327 100 0 0
-9.9500141 2.6446187 2.2605159 100 0 0
-8.3198671 10.570433 -0.067859076 100 0 0
-9.6553307 3.4310272 -2.1785936 100 0 0
-10.382807 11.998408 -2.0475109 100 0 0
-9.0291224 3.443773 2.1016877 100 0 0
-9.3421335 3.4609439 -0.93404394 100 0 0
-8.2326231 6.8288922 0.45727706 100 0 0
-10.040577 13.611965 2.0719118 100 0 0
-11.317255 5.2484455 -1.8735389 100 0 0
-12.391601 9.5814972 0.11401606 100 0 0
-11.531253 8.0642996 -2.0011091 100 0 0
-10.286149 5.3784895 2.2653401 100 0 0
-11.303008 2.0620055 -1.9230999 100 0 0
-10.037725 8.0336857 2.25525 100 0 0
-12.957007 14.380713 0.50707835 100 0 0
-12.833732 4.7570658 0.77570021 100 0 0
-8.6271381 7.411613 1.907546 100 0 0
-9.62498 10.402675 -2.1278589 100 0 0
-8.6097221 14.850132 -0.64645422 100 0 0
-12.24869 0.33311859 1.7255703 100 0 0
-7.9234982 7.3513565 -0.67458785 100 0 0
-12.972414 15.767172 1.3809904 100 0 0
-8.3378944 8.0652857 0.72596395 100 0 0
-12.828481 2.1593978 -0.17382394 100 0 0
-10.586035 12.94102 2.2389214 100 0 0
-11.747921 9.0215206 1.0707276 100 0 0
-7.617321 13.772045 0.40244913 100 0 0
-9.1322527 12.135201 -1.0467131 100 0 0
-8.322814 6.2594857 -1.5131093 100 0 0
-7.3443117 -0.53429335 0.0049496153 100 0 0
-7.8146582 13.256124 -0.79194069 100 0 0
-8.7464323 6.1343393 -0.92728448 100 0 0
-7.9002905 3.7548277 -0.20224193 100 0 0
-8.2815628 15.405989 -1.6436732 100 0 0
-11.527779 6.848547 1.8967664 100 0 0
-13.036638 2.1027606 -0.33862746 100 0 0
-12.499309 1.4604435 1.8296039 100 0 0
-10.114354 6.1039023 -1.2970567 100 0 0
-12.230769 3.0095737 2.148649 100 0 0
-11.386151 7.8087597 2.2133865 100 0 0
-11.715261 8.0075445 2.1501286 100 0 0
-8.3219995 2.6761494 0.66227239 100 0 0
-9.8413677 10.446963 -2.4777122 100 0 0
-8.9289751 3.6345651 1.3470852 100 0 0
-10.729382 4.7675033 2.2175674 100 0 0
-10.363084 13.211761 -2.3775625 100 0 0
-8.2057438 8.1362171 1.0630509 100 0 0
-11.790184 2.8614538 1.999105 100 0 0
-10.042582 8.0374527 2.2821126 100 0 0
-10.125119 10.816416 -2.0079443 100 0 0
-13.393781 8.6486635 1.0301957 100 0 0
-7.745142 11.443575 -0.11645042 100 0 0
-8.5293846 0.94340879 -0.82282728 100 0 0
-10.284876 11.435685 2.1818564 100 0 0
-12.157416 9.8802767 -1.0814425 100 0 0
-8.6909685 11.252824 0.81468582 100 0 0
-8.4482517 12.601932 1.8333448 100 0 0
-9.2993193 4.2322702 -1.6253337 100 0 0
-9.2844982 15.431961 1.71926 100 0 0
-8.9952469 8.494627 -1.6539099 100 0 0
-8.1335077 12.412337 -0.096999876 100 0 0
-13.352026 6.3055277 -0.22463152 100 0 0
-11.345492 6.2491431 1.8869383 100 0 0
-11.450543 6.6911507 0.74961841 100 0 0
-10.612894 4.5149164 -2.0684707 100 0 0
-13.015311 13.653816 -0.095525488 100 0 0
-10.375275 -0.12051176 2.1354594 100 0 0
-13.754827 14.989684 -0.23425087 100 0 0
-7.683444 2.1083415 -0.011730624 100 0 0
-8.9041071 14.175683 0.89873165 100 0 0
-8.4296713 13.738688 0.58594197 100 0 0
-10.902131 6.9500952 2.1110089 100 0 0
-12.806159 4.6032529 -2.0295436 100 0 0
-8.9946184 12.8438 1.6135291 100 0 0
-11.963661 13.020639 -2.0864193 100 0 0
-11.800512 6.5628424 -1.865836 100 0 0
-10.454821 9.7372608 -2.2809501 100 0 0
-10.26381 9.5005054 2.4487288 100 0 0
-10.006364 10.141573 2.2269435 100 0 0
-8.9201727 5.5163736 1.7574588 100 0 0
-11.617249 6.1092429 -1.6341696 100 0 0
-9.3006592 13.926104 1.9528441 100 0 0
-9.0898008 2.3481436 -1.8957804 100 0 0
-12.521407 1.5314568 0.19487417 100 0 0
-12.346836 0.13491395 1.0710244 100 0 0
-10.522016 10.854123 2.309751 100 0 0
-8.6223288 11.015851 -0.19497837 100 0 0
-9.5067539 3.5896633 -2.2263045 100 0 0
-14.173737 13.683826 -1.0399388 100 0 0
-12.705078 4.2474041 0.77857661 100 0 0
-10.497318 10.275043 2.1883407 100 0 0
-8.8430166 9.6719217 -0.90473145 100 0 0
-9.0450611 11.866884 1.4515769 100 0 0
-8.604681 14.934175 0.72237802 100 0 0
-10.198167 13.338138 2.2544034 100 0 0
-10.981718 15.263969 1.7466972 100 0 0
-8.5366077 -0.32047424 -0.54788339 100 0 0
-11.701269 13.43964 2.1303444 100 0 0
-8.0853386 5.5170155 0.20542854 100 0 0
-8.3806162 3.8959029 -0.25481632 100 0 0
-10.233825 6.8505998 1.9544389 100 0 0
-8.2773781 14.051168 0.89949465 100 0 0
-13.535068 -0.040740807 1.0397744 100 0 0
-8.5903597 0.43133622 0.9870441 100 0 0
-8.4283495 8.1929216 1.8353064 100 0 0
-11.638563 3.5873682 2.092114 100 0 0
-11.125826 10.574699 2.3514664 100 0 0
-9.8157043 9.3815699 -2.0140457 100 0 0
-9.3860149 3.4902382 1.6454043 100 0 0
-11.169119 7.9162517 -1.594515 100 0 0
-11.625187 7.3068852 2.1117144 100 0 0
-9.6057549 7.9119115 -1.7100857 100 0 0
-12.425616 11.356786 1.2887151 100 0 0
-9.4907513 2.7324533 -1.9772598 100 0 0
-12.992658 11.209229 -1.2580044 100 0 0
-9.0484314 2.6662483 1.8410077 100 0 0
-12.099393 8.5390949 -2.5117965 100 0 0
-12.071736 8.7641087 2.4463017 100 0 0
-13.197633 6.3417349 -1.6691031 100 0 0
-12.156507 2.3190575 1.269487 100 0 0
-8.7507477 2.4990115 -0.17706308 100 0 0
-12.356014 8.2638655 -1.4135365 100 0 0
-10.452056 3.5161138 2.2534554 100 0 0
-8.7343044 5.2365298 -1.0455854 100 0 0
-10.402724 6.73772 -2.2343721 100 0 0
-8.8077745 3.1392314 0.0033220449 100 0 0
-8.4050741 5.8240652 -0.19040458 100 0 0
-11.125313 -0.58349854 -2.3457031 100 0 0
-13.569283 0.29412577 0.48619211 100 0 0
-11.950073 3.0696299 2.0996656 100 0 0
-10.066408 12.145213 2.3290989 100 0 0
-12.540686 13.773069 -0.12693414 100 0 0
-9.1629705 4.8754153 2.3223801 100 0 0
-8.9760027 -0.59504813 -2.1999309 100 0 0
-9.2811213 0.34394604 2.1560786 100 0 0
-9.5088949 2.3210685 -1.7940106 100 0 0
-9.899622 3.1423092 -1.9746716 100 0 0
-12.852629 -0.81199735 1.3197079 100 0 0
-13.437777 -0.22453663 1.1270312 100 0 0
-8.3684587 3.6747637 0.084855571 100 0 0
-9.5852432 7.606461 -2.2858062 100 0 0
-9.0635271 4.0959654 1.0520555 100 0 0
-11.008024 10.97443 -2.0160763 100 0 0
-9.8423004 14.842709 1.5905316 100 0 0
-8.9460144 3.7080142 1.6477844 100 0 0
-11.947621 10.688279 1.8852129 100 0 0
-8.2235537 4.4403148 -0.94311661 100 0 0
-13.395439 2.7545085 -1.0939088 100 0 0
-13.068965 14.663447 -1.2403321 100 0 0
-13.019084 2.648829 -1.0655272 100 0 0
-8.2782049 2.0841167 -0.46482217 100 0 0
-11.078807 2.5938063 -2.0786386 100 0 0
-11.999576 5.7870789 0.74082172 100 0 0
-12.190458 8.8898382 1.4943354 100 0 0
-12.402604 13.217206 0.74649858 100 0 0
-12.750826 5.6417642 1.2853417 100 0 0
-10.569697 10.564251 2.1601532 100 0 0
-8.5207424 13.119216 -0.3524749 100 0 0
-10.353301 0.66544634 2.0872192 100 0 0
-11.568102 -0.59512609 -1.6002337 100 0 0
-12.4924 9.6744757 1.5290041 100 0 0
-11.701516 5.163228 -2.2247951 100 0 0
-8.6877689 10.25382 1.8079102 100 0 0
-8.2826872 7.2610955 -0.98366511 100 0 0
-9.434104 11.833567 -2.0036206 100 0 0
-9.5094128 8.0595617 1.8862759 100 0 0
-10.382102 8.7180376 -2.4063194 100 0 0
-11.875928 13.667583 0.73042196 100 0 0
-12.844936 2.8148811 -1.8352331 100 0 0
-10.439986 14.599801 -2.3095558 100 0 0
-10.342125 7.2056808 -2.3152537 100 0 0
-12.128159 10.73532 0.2071104 100 0 0
-8.4307518 2.8379934 -0.21082537 100 0 0
-8.0949125 8.5061359 -0.30642617 100 0 0
-12.510691 11.315179 -1.1581624 100 0 0
-8.2212381 8.9406433 -0.29930991 100 0 0
-12.3575 12.991504 0.43570429 100 0 0
-8.3354197 12.993051 0.095569007 100 0 0
-10.664435 1.9039171 1.9603001 100 0 0
-12.685467 4.6058531 -0.65879285 100 0 0
-11.238201 16.495874 -2.2367227 100 0 0
-11.393446 10.156894 -1.7320187 100 0 0
-8.8881645 2.1640196 0.71045673 100 0 0
-12.335525 9.1495075 1.7269348 100 0 0
-9.4298096 9.9325399 -0.14779183 100 0 0
-11.843282 13.901142 1.8425883 100 0 0
-9.0933809 5.2959127 -1.5497223 100 0 0
-9.9146509 1.8505037 -1.8962882 100 0 0
-7.9914799 11.232594 1.8009288 100 0 0
-9.5399752 6.8959665 1.9359964 100 0 0
-13.91338 1.4137685 0.68709719 100 0 0
-12.178647 6.680974 0.67473537 100 0 0
-8.7040596 4.7068048 -1.9337208 100 0 0
-10.060735 14.759042 -1.9448376 100 0 0
-10.99323 8.2594948 2.3714275 100 0 0
-8.5559635 11.092742 0.43712416 100 0 0
-10.812941 0.92904472 2.3626719 100 0 0
-11.128456 12.828295 -2.1144323 100 0 0
-10.260916 0.70845717 -2.0559165 100 0 0
-9.279562 13.253702 2.4721479 100 0 0
-11.964917 6.3158584 -1.968022 100 0 0
-8.7694187 13.846725 -0.99515843 100 0 0
-13.67352 12.843472 0.15736431 100 0 0
-12.067257 1.8322622 1.7836536 100 0 0
-12.581165 14.556563 1.0294675 100 0 0
-13.216927 10.685404 1.4154426 100 0 0
-10.025781 11.242682 2.2017269 100 0 0
-11.86104 1.8949287 1.9744511 100 0 0
-10.39935 13.474041 -2.2665451 100 0 0
-11.092493 4.2914472 -1.5886613 100 0 0
-12.896041 6.3811607 -1.0378842 100 0 0
-10.860003 15.9232 2.3871801 100 0 0
-11.52686 13.375152 2.1344845 100 0 0
-9.9142656 7.9209824 -1.8835357 100 0 0
-9.3475924 11.78605 1.9800493 100 0 0
-10.365043 9.2315845 2.0746925 100 0 0
-13.342323 15.554989 -1.037256 100 0 0
-8.7738628 16.138897 -1.4776137 100 0 0
-8.2404985 8.45049 0.8568055 100 0 0
-10.923401 12.669864 2.2231982 100 0 0
-13.402862 11.447232 -1.0316194 100 0 0
-13.070238 15.705667 -0.25978667 100 0 0
-12.323241 11.511934 -0.1805077 100 0 0
-12.356627 4.4879613 0.77622014 100 0 0
-9.0294924 7.5787892 1.1026742 100 0 0
-10.243299 6.6973615 -2.158819 100 0 0
-11.608808 9.9329052 0.35160783 100 0 0
-13.009115 -0.0092211496 0.13469444 100 0 0
-11.912181 5.648684 -0.2231923 100 0 0
-11.831206 9.1756277 1.7900506 100 0 0
-10.874123 0.42773315 2.4427707 100 0 0
-9.0845881 4.1802945 -2.0431392 100 0 0
-8.4533319 9.8426523 0.041622166 100 0 0
-11.022405 9.5212812 2.0614641 100 0 0
-8.5098686 1.54246 0.66356671 100 0 0
-11.863801 10.656661 -1.86658 100 0 0
-12.949315 -0.51032394 -0.58109432 100 0 0
-9.0431318 0.91979909 -1.1722888 100 0 0
-8.2046919 13.53411 0.53760707 100 0 0
-11.473422 5.4227953 -1.9637182 100 0 0
-12.787395 7.4697213 0.68796861 100 0 0
-7.8128772 1.2385322 -0.79049778 100 0 0
-12.557449 13.832797 1.7061211 100 0 0
-8.2569265 5.9400749 1.512498 100 0 0
-9.3805656 0.86241198 -0.050733764 100 0 0
-10.034856 9.1934166 2.1376357 100 0 0
-8.6111288 1.2865545 0.5390057 100 0 0
-8.4352007 4.3482237 0.85250455 100 0 0
-9.3970127 12.103941 2.1177568 100 0 0
-13.07586 8.2848082 0.47000811 100 0 0
-9.6385612 8.2967558 1.8015378 100 0 0
-10.202048 0.31240386 -2.2980139 100 0 0
-7.9312 9.2104073 -0.79430628 100 0 0
-9.3475418 3.0922506 1.3963859 100 0 0
-12.119116 8.675498 -2.2997663 100 0 0
-8.9413586 7.7230639 -1.7399496 100 0 0
-9.5347691 10.20124 2.174942 100 0 0
-12.00526 14.047233 -1.1264155 100 0 0
-9.0138102 9.1603193 1.7338645 100 0 0
-11.566154 13.013286 0.11843219 100 0 0
-8.2954407 -0.65285456 0.26290381 100 0 0
-8.0704842 10.778659 -0.95060837 100 0 0
-7.9335732 1.3577292 1.1479642 100 0 0
-12.354768 1.612132 0.68837577 100 0 0
-11.427176 1.0829769 1.9602845 100 0 0
-9.7080832 5.391634 -2.2254155 100 0 0
-12.951347 10.167846 0.52460861 100 0 0
-7.5795135 8.7911663 -1.2726191 100 0 0
-8.5454912 11.497797 0.13221128 100 0 0
-9.6734581 5.1351671 -1.8130252 100 0 0
-8.3438673 13.311139 -0.22410153 100 0 0
-8.509491 12.355561 -0.071358152 100 0 0
-9.3194752 4.3833718 -2.3714468 100 0 0
-11.238442 12.841974 -2.1049778 100 0 0
-9.9634466 7.3755765 -1.9853461 100 0 0
-10.519772 14.401917 2.3763914 100 0 0
-9.1433764 10.156408 1.4917126 100 0 0
-12.355579 12.46894 0.53552192 100 0 0
-11.093499 -0.12903816 1.8812752 100 0 0
-8.2570896 5.5123277 -0.59491652 100 0 0
-11.016599 3.326329 -2.117662 100 0 0
-9.2246389 1.0045704 -1.136713 100 0 0
-9.8054514 1.9415859 2.1483121 100 0 0
-11.819325 12.793311 -1.3539183 100 0 0
-9.6970034 9.3159676 2.0439439 100 0 0
-11.022453 10.729136 -2.1642334 100 0 0
-9.5390015 4.715848 0.40044951 100 0 0
-12.691424 2.2121267 0.33943272 100 0 0
-12.69857 10.521104 -1.7549522 100 0 0
-10.976418 6.8021688 -2.002733 100 0 0
-8.8617458 10.620965 1.3911171 100 0 0
-8.755805 13.03088 -1.2490894 100 0 0
-8.0193872 5.1939278 0.40795407 100 0 0
-12.904537 6.2605009 -0.57801712 100 0 0
-8.6521235 2.979543 -1.4354972 100 0 0
-12.242222 0.84071583 1.304641 100 0 0
-8.6607466 5.9426818 -1.5424457 100 0 0
-9.5650702 7.2808571 -2.2923188 100 0 0
-8.4807606 4.9136295 0.085985839 100 0 0
-11.828455 7.7264986 -0.9456861 100 0 0
-10.37546 0.66882086 2.3729074 100 0 0
-8.6717405 2.8912265 1.4165326 100 0 0
-8.0859356 9.2194462 0.93252939 100 0 0
-8.608469 0.55330151 -0.92202157 100 0 0
-11.745937 4.2148762 1.4510751 100 0 0
-11.327463 11.385691 2.1760526 100 0 0
-9.6566648 10.843166 -1.8794315 100 0 0
-11.814122 5.1352587 2.1616611 100 0 0
-8.5277815 3.3209414 0.14336996 100 0 0
-12.385274 12.120221 1.4117571 100 0 0
-11.953878 9.4521389 1.8200339 100 0 0
-12.050619 6.2348008 -2.219388 100 0 0
-10.414487 4.2853999 2.086458 100 0 0
-12.65589 4.2185783 1.9857088 100 0 0
-11.877528 0.28064981 0.88661593 100 0 0
-10.176077 2.7745719 -2.2589362 100 0 0
-9.0868244 13.188627 1.7040974 100 0 0
-12.393965 3.9189205 0.46863261 100 0 0
-11.033373 14.608854 2.061759 100 0 0
-9.7535048 -0.75916034 2.3666267 100 0 0
-8.9164934 0.60571235 -0.085736915 100 0 0
-11.93049 5.0184784 -2.0325913 100 0 0
-8.9459543 5.696692 2.3366721 100 0 0
-12.344123 14.493997 -1.5397055 100 0 0
-12.620973 8.811717 0.98502457 100 0 0
-12.510312 10.207752 -0.56036669 100 0 0
-12.83489 9.1419172 1.7623969 100 0 0
-10.483566 13.744526 -2.3062379 100 0 0
-13.442918 8.9078245 0.24334612 100 0 0
-13.821567 3.4699488 -0.95401323 100 0 0
-12.559377 3.3509803 -1.059797 100 0 0
-10.489899 8.5867796 -2.3963747 100 0 0
-10.588315 2.2622793 2.2232065 100 0 0
-9.3504553 14.464159 1.6165037 100 0 0
-11.952236 3.7212329 2.2647257 100 0 0
-9.5025311 0.19001555 1.7524878 100 0 0
-9.195466 1.8882726 -1.026386 100 0 0
-13.260183 9.550271 0.2420671 100 0 0
-8.2479439 9.5568237 1.1329132 100 0 0
-10.039504 4.6978211 -2.2837069 100 0 0
-7.8826394 6.8056846 -1.2949569 100 0 0
-8.6518803 10.828463 -2.0593953 100 0 0
-11.535136 2.4529016 2.2020364 100 0 0
-13.598416 13.831258 -0.35040072 100 0 0
-8.9159164 4.6952915 -1.5777469 100 0 0
-10.005599 6.4614229 -2.1124778 100 0 0
-8.4948769 13.892686 0.7380355 100 0 0
-10.251644 14.990137 -2.245995 100 0 0
-11.736924 11.105519 0.42121735 100 0 0
-13.556199 6.7695417 1.5141871 100 0 0
-9.9294357 3.4325964 -2.1794012 100 0 0
-12.852084 9.3069019 -1.3890579 100 0 0
-11.662593 4.2263136 -1.1311255 100 0 0
-7.7537842 0.15873389 -1.0435419 100 0 0
-10.645947 -0.31966591 2.157424 100 0 0
-8.3435059 9.3491964 -0.66133821 100 0 0
-12.21535 5.1701655 -1.5412507 100 0 0
-13.181948 9.1932821 -0.98669499 100 0 0
-12.020247 5.4517164 -1.2283309 100 0 0
-8.9920359 10.961907 1.6634547 100 0 0
-10.099623 9.8951883 -1.9769576 100 0 0
-9.0092468 3.5002546 1.7183075 100 0 0
-8.3487377 2.4015195 -1.0946223 100 0 0
-12.802083 10.356656 1.2684494 100 0 0
-10.584823 3.1366136 -2.4562554 100 0 0
-10.048023 0.97337002 2.2767675 100 0 0
-8.3330126 15.183799 -0.89121568 100 0 0
-9.35431 10.822899 -1.5146981 100 0 0
-12.300752 5.4809008 0.038475946 100 0 0
-9.0810575 12.724681 -1.367085 100 0 0
-9.205081 6.7378783 -1.9633539 100 0 0
-10.955209 11.866891 2.34602 100 0 0
-7.9822927 5.1239004 -1.1795542 100 0 0
-9.443903 0.34934887 1.9966384 100 0 0
-13.284639 8.0426035 -0.84129167 100 0 0
-7.9073606 1.8205897 -0.87328947 100 0 0
-8.6015873 11.485453 1.3784804 100 0 0
-9.4447823 14.055675 1.469453 100 0 0
-10.487489 0.98051661 -2.3940136 100 0 0
-13.774286 4.9689283 0.0041853641 100 0 0
-10.65656 0.77303284 -2.2224779 100 0 0
-9.7540655 1.79688 2.1825478 100 0 0
-12.377088 9.03339 -0.61260331 100 0 0
-11.901891 6.0007524 2.1186872 100 0 0
-13.160039 15.461698 0.75805283 100 0 0
-9.3623476 8.4468699 2.0863552 100 0 0
-12.258047 1.7568125 0.84692341 100 0 0
-8.7549763 8.7693701 -1.8238543 100 0 0
-8.372262 7.4318476 -0.1611214 100 0 0
-11.59789 14.548898 0.72758871 100 0 0
-11.977072 13.952603 1.7795452 100 0 0
-13.241775 14.825436 -0.7160542 100 0 0
-8.5826588 9.4254665 1.5055238 100 0 0
-7.4412007 8.2518377 -0.14197536 100 0 0
-12.789721 1.2860425 -0.96979296 100 0 0
-12.365005 16.098425 -1.1434749 100 0 0
-10.347532 3.846561 2.1268711 100 0 0
-13.350916 2.6781645 -0.040681545 100 0 0
-10.153902 7.0301161 2.0127859 100 0 0
-8.7608833 0.22828156 -2.1652155 100 0 0
-11.29705 8.8453922 2.1345499 100 0 0
-12.762615 7.8341804 0.61696941 100 0 0
-12.047557 14.246913 -0.40640116 100 0 0
-12.51857 9.9934177 0.69542843 100 0 0
-12.2043 7.9855905 1.5208659 100 0 0
-9.2708435 10.016138 -1.0416464 100 0 0
-8.2154417 12.783602 -0.63650852 100 0 0
-11.448722 12.484362 -1.461309 100 0 0
-7.9702182 7.7331033 -0.041233193 100 0 0
-9.0061455 5.2081604 -1.7546206 100 0 0
-11.246814 13.47746 -2.1753714 100 0 0
-10.496759 14.583101 2.5336263 100 0 0
-10.035653 3.4187796 -2.0766182 100 0 0
-11.787239 12.49099 -1.9480723 100 0 0
-11.497245 12.500447 1.2587786 100 0 0
-11.214787 7.8755655 1.615868 100 0 0
-10.314035 13.884723 -2.104826 100 0 0
-8.4167204 14.531448 -0.46317908 100 0 0
-9.7525721 10.972386 -1.7529732 100 0 0
-12.642331 4.9008594 1.0062861 100 0 0
-8.5536423 2.9239347 1.5056584 100 0 0
-11.409878 7.5094271 2.32056 100 0 0
-14.241951 0.56325865 0.18408918 100 0 0
-9.4105749 4.2616925 -2.0240998 100 0 0
-11.518699 1.8854947 1.8452058 100 0 0
-13.34951 1.724122 -0.32993343 100 0 0
-8.3716984 10.906273 0.34172353 100 0 0
-7.8821278 14.283875 1.4322674 100 0 0
-11.458622 9.4909935 2.0887766 100 0 0
-12.038387 12.199917 -2.0652614 100 0 0
-9.5583038 11.619419 1.9746909 100 0 0
-8.588727 0.26956049 0.99551785 100 0 0
-9.9596376 2.3848507 -2.1514299 100 0 0
-9.0291338 11.098031 -1.56295 100 0 0
-9.808548 11.887166 -2.1076939 100 0 0
-8.3890905 12.676696 -0.9938978 100 0 0
-8.8833122 7.1171079 1.9194829 100 0 0
-12.948612 2.4140527 -0.67649961 100 0 0
-12.552967 1.873014 -1.3005435 100 0 0
-12.412961 2.4589844 1.7640952 100 0 0
-12.087884 7.0938473 -1.8856502 100 0 0
-10.450005 7.6775079 2.2918115 100 0 0
-11.445873 3.5588543 2.1917357 100 0 0
-12.63257 10.387019 -1.2999594 100 0 0
-9.9060564 -0.11099368 -2.0420668 100 0 0
-9.9612532 11.821007 2.2295582 100 0 0
-13.332449 1.6112022 1.109705 100 0 0
-8.714736 1.9431398 0.20249023 100 0 0
-8.009635 12.120271 0.16356799 100 0 0
-10.386445 1.1760088 2.2185097 100 0 0
-10.265297 5.5085812 2.3314106 100 0 0
-7.8156867 1.4308648 -0.65766406 100 0 0
-11.816463 2.7722056 -2.4469805 100 0 0
-8.5535297 8.0824842 1.4075537 100 0 0
-9.3425541 5.2407436 -2.0296757 100 0 0
-10.147426 7.2008266 2.490942 100 0 0
-8.2851858 9.5800705 -1.0450392 100 0 0
-8.8814192 13.426361 -1.8506622 100 0 0
-8.5820255 11.935926 1.498685 100 0 0
-8.1756039 3.8539462 0.37868264 100 0 0
-10.613203 6.4357343 2.1872835 100 0 0
-8.0445356 0.90702295 -1.2894509 100 0 0
-9.3974018 0.77287233 1.5075328 100 0 0
-10.428808 4.4845796 -1.962373 100 0 0
-11.922501 8.0406265 1.5297976 100 0 0
-8.9271421 1.8007966 1.4549307 100 0 0
-9.0899754 3.2205667 -2.2599518 100 0 0
-12.346211 4.0279021 -0.095054068 100 0 0
-8.8828392 8.6472712 -0.88935179 100 0 0
-11.87569 4.3589916 -1.6135831 100 0 0
-8.6912222 13.954638 -0.95861131 100 0 0
-11.75007 9.2482014 -0.37595242 100 0 0
-11.328804 8.0505152 -1.7873479 100 0 0
-12.508362 3.9585145 -1.0876001 100 0 0
-7.7313919 6.3887339 -0.69347745 100 0 0
-12.927423 14.95096 0.23229669 100 0 0
-12.694105 12.513576 0.3997016 100 0 0
-11.762339 7.7989159 2.1352098 100 0 0
-8.0705938 2.4792149 0.63843513 100 0 0
-10.828857 7.4606261 -1.8680732 100 0 0
-11.932279 2.0876522 1.1041266 100 0 0
-12.280818 14.276699 -0.77040738 100 0 0
-8.559803 7.2111697 0.40253851 100 0 0
-13.064261 3.3234117 -1.035602 100 0 0
-12.064016 11.496028 2.1849966 100 0 0
-8.2158508 6.474947 0.85105211 100 0 0
-7.8082008 14.980247 1.0252107 100 0 0
-10.714329 12.728292 2.2941725 100 0 0
-13.332739 7.8663621 -0.84637827 100 0 0
-8.5764265 14.555844 -0.29474387 100 0 0
-11.732072 11.328216 -0.96735835 100 0 0
-12.082644 14.827244 -0.8081972 100 0 0
-9.957221 15.111608 -1.7879103 100 0 0
-12.774042 6.3905005 -0.67724913 100 0 0
-11.014858 3.4285986 1.9030987 100 0 0
-12.57143 15.018139 -0.92311937 100 0 0
-12.476632 1.9955107 1.6444442 100 0 0
-12.54616 5.5218711 0.381614 100 0 0
-12.050499 4.18573 1.3717574 100 0 0
-8.851757 4.2159753 1.1633239 100 0 0
-9.0002012 1.6991806 1.9126689 100 0 0
-12.622319 15.195477 0.16794394 100 0 0
-11.04574 0.25375304 -1.9881167 100 0 0
-10.182647 6.8498139 2.0238745 100 0 0
-8.1207438 4.392508 0.1853856 100 0 0
-11.205927 8.8394947 -2.090446 100 0 0
-8.1386395 10.618382 -0.87154096 100 0 0
-9.8073759 11.900147 1.5977122 100 0 0
-11.680328 7.9204988 -1.2570254 100 0 0
-12.694366 4.758594 1.1103499 100 0 0
-9.7903976 7.0634346 1.8434643 100 0 0
-12.605879 2.027503 1.1096152 100 0 0
-13.150693 10.318259 -1.139787 100 0 0
-10.889926 1.23437 -2.262634 100 0 0
-12.788892 12.094694 0.89613008 100 0 0
-7.9764414 14.655088 0.40742218 100 0 0
-13.013368 10.883383 -0.53568619 100 0 0
-8.9128075 0.87548167 0.87885714 100 0 0
-7.8488703 3.4605849 -1.3963872 100 0 0
-12.870851 -0.76771474 -1.291555 100 0 0
-9.2157545 10.023758 1.7075554 100 0 0
-8.4794321 5.9651918 1.4261343 100 0 0
-8.3260527 10.935004 0.73333639 100 0 0
-10.216212 16.577179 -1.8632399 100 0 0
-8.3702221 12.944532 -0.62253302 100 0 0
-9.3471127 0.89561397 -2.0780163 100 0 0
-7.7895808 15.881489 -0.69859582 100 0 0
-11.512116 15.324329 -2.3400042 100 0 0
-11.47127 2.2879241 -1.4824197 100 0 0
-8.1565104 8.3114567 0.25480512 100 0 0
-8.3360605 7.3175263 0.2961742 100 0 0
-10.979838 11.776337 -2.2876904 100 0 0
-11.554174 10.932972 -2.2187209 100 0 0
-13.341866 4.7895713 -0.34289879 100 0 0
-12.532316 5.7865529 -0.55443686 100 0 0
-11.802258 11.788496 -2.4141142 100 0 0
-8.2793865 12.506545 -1.5328023 100 0 0
-8.0902872 2.8694775 -1.246058 100 0 0
-8.6040907 0.4788928 -1.4899651 100 0 0
-11.237342 5.1990604 0.56426316 100 0 0
-7.5185041 1.3864125 0.45427698 100 0 0
-10.003972 3.9904068 -2.2516842 100 0 0
-9.3123693 4.0541525 2.1126521 100 0 0
-10.002378 2.4962938 -2.154866 100 0 0
-11.705791 12.725685 1.9615411 100 0 0
-10.106198 13.766816 2.3082418 100 0 0
-12.779634 12.075788 -0.52271777 100 0 0
-9.9216261 4.820003 -2.365196 100 0 0
-8.0703087 2.2960758 0.349608 100 0 0
-9.2220974 0.077478722 1.8118004 100 0 0
-11.455734 9.1714029 -2.1861198 100 0 0
-8.2432451 -0.22799368 0.20327772 100 0 0
-7.8869171 11.159491 -0.24815969 100 0 0
-11.229507 10.929748 -2.1782825 100 0 0
-8.9588909 14.345917 1.2991815 100 0 0
-8.6079845 0.020005917 0.38232401 100 0 0
-11.444496 1.04012 2.2082784 100 0 0
-9.1326113 10.771731 -1.2079192 100 0 0
-12.557316 8.5822248 -0.87609309 100 0 0
-8.383255 -0.40758193 -1.5563 100 0 0
-8.6279325 2.3873594 -1.6935618 100 0 0
-12.824986 1.7101464 -0.57449555 100 0 0
-11.573892 13.461208 -1.9659624 100 0 0
-8.9760036 3.5624404 -1.2753345 100 0 0
-9.3441334 5.7388053 -1.9016691 100 0 0
-8.4251347 0.51096559 -0.62294698 100 0 0
-8.6164846 -0.21932499 0.31492501 100 0 0
-8.4348516 9.9137993 -1.0014495 100 0 0
-11.514297 5.3328047 -0.83413416 100 0 0
-9.1484013 4.7540846 -2.1056812 100 0 0
-8.7319555 8.4372835 1.4872876 100 0 0
-12.126575 11.935567 -0.49138343 100 0 0
-8.2374783 0.96851909 -1.5274473 100 0 0
-12.031921 1.8228604 2.2206795 100 0 0
-10.865779 3.355994 -2.1153758 100 0 0
-11.739363 14.001452 2.1244023 100 0 0
-13.179016 1.9800329 0.30625543 100 0 0
-11.765929 11.276925 -1.6506553 100 0 0
-11.360927 1.2978878 -1.6017948 100 0 0
-12.420239 5.5636349 0.82894176 100 0 0
-8.9201183 7.2550368 2.3480048 100 0 0
-8.41819 6.392477 -1.8342439 100 0 0
-9.1007776 3.2143245 2.0883126 100 0 0
-11.834087 1.0551176 1.6821803 100 0 0
-8.4036541 14.29858 -0.017071489 100 0 0
-10.7068 10.67885 2.3452659 100 0 0
-9.5532808 13.041184 2.2150512 100 0 0
-9.0343676 4.9945865 1.2097648 100 0 0
-8.6253633 0.44491163 -1.892818 100 0 0
-8.1661148 10.299204 0.77061296 100 0 0
-12.953506 7.0430937 -1.1137439 100 0 0
-11.323393 14.981133 2.0452344 100 0 0
-9.8871403 8.288763 -2.1873741 100 0 0
-12.606601 12.291673 -0.78210711 100 0 0
-11.403844 13.917147 -2.008534 100 0 0
-8.1778536 9.0346231 -0.66174805 100 0 0
-10.701138 0.66526592 2.0204515 100 0 0
-10.657086 3.8979182 -2.2113075 100 0 0
-9.7983284 9.1198864 2.4371686 100 0 0
-11.978039 15.90688 1.9117903 100 0 0
-9.8361845 9.9795723 -2.2770901 100 0 0
-11.497931 3.013243 -2.3763039 100 0 0
-9.4481306 0.62272757 -2.1123052 100 0 0
-11.092919 14.341655 -2.0175273 100 0 0
-8.7648897 3.2925534 -1.9363085 100 0 0
-9.1927252 6.834599 -0.82667816 100 0 0
-10.337685 13.112819 2.1842136 100 0 0
-13.457258 -0.56962985 0.61004359 100 0 0
-8.4705639 10.927801 -0.17067669 100 0 0
-11.542388 13.054049 -0.63671589 100 0 0
-12.919532 8.5939417 -0.93812364 100 0 0
-11.845601 8.6915693 2.003782 100 0 0
-11.200526 15.65637 -1.7258612 100 0 0
-9.8947124 2.0586829 -2.2986085 100 0 0
-8.5244751 1.0760621 -0.36409 100 0 0
-11.087999 10.033793 2.1697011 100 0 0
-7.5291963 7.9473238 0.24433169 100 0 0
-12.538521 5.4918137 2.0489724 100 0 0
-12.678866 7.2835298 1.7599602 100 0 0
-9.4096327 3.6658785 -1.0336287 100 0 0
-9.1452637 10.157034 1.2869509 100 0 0
-13.067228 2.3700066 0.77379215 100 0 0
-11.497831 11.392723 2.1913912 100 0 0
-12.835556 6.3172326 1.8610014 100 0 0
-9.2077532 3.1931851 2.2123554 100 0 0
-12.338699 13.386522 0.069905967 100 0 0
-10.621451 11.728721 2.5249174 100 0 0
-10.517751 0.039965313 -2.255733 100 0 0
-11.141588 5.8321753 -2.1972902 100 0 0
-13.101199 8.2041368 0.23965512 100 0 0
-10.111875 9.9815626 2.1915722 100 0 0
-8.872632 1.5306555 -1.6689746 100 0 0
-8.1014547 0.23362361 0.82888055 100 0 0
-12.696229 9.3976097 -1.0821215 100 0 0
-8.4549971 8.2460804 1.9300536 100 0 0
-11.558197 6.1087055 -1.3065702 100 0 0
-8.5951605 3.447876 -1.4608071 100 0 0
-10.859853 9.7865887 2.1129632 100 0 0
-10.038472 11.288196 2.2141361 100 0 0
-9.2486458 13.382265 -2.077111 100 0 0
-12.876507 10.165991 0.49533275 100 0 0
-9.3247213 4.183671 -2.0974622 100 0 0
-10.014449 9.1880188 2.191798 100 0 0
-10.901073 13.446999 2.2623637 100 0 0
-9.8003302 8.9423361 -1.9988753 100 0 0
-11.303653 11.449602 -2.3239861 100 0 0
-11.354225 1.2065969 1.9301974 100 0 0
-11.857476 8.5116405 -2.2010767 100 0 0
-8.4750309 10.63257 1.0819438 100 0 0
-9.1946335 10.568085 -1.1066924 100 0 0
-8.5788403 10.915565 0.8990491 100 0 0
-11.505126 8.8772993 -1.9640563 100 0 0
-9.2598906 10.327383 1.399068 100 0 0
-11.095663 2.1599317 -2.1029625 100 0 0
-11.084644 7.4249463 -2.1283329 100 0 0
-12.885571 10.00242 0.25552025 100 0 0
-11.328061 4.6509929 1.8106487 100 0 0
-11.401976 6.7249331 -1.3379763 100 0 0
-8.319026 -0.31837556 0.52103561 100 0 0
-10.8173 14.114422 1.8850907 100 0 0
-9.1190615 6.9746499 1.2832937 100 0 0
-12.853143 1.388496 0.19114093 100 0 0
-11.149751 4.5817947 1.5624057 100 0 0
-9.574192 2.0686107 -1.8663062 100 0 0
-12.996925 12.280165 0.49059877 100 0 0
-11.683447 3.4414778 1.1433845 100 0 0
-11.026768 5.7024851 2.3471165 100 0 0
-8.2322149 14.559 -1.0702747 100 0 0
-11.01448 7.3237491 -2.1532216 100 0 0
-11.122809 10.62627 -2.057183 100 0 0
-8.4556952 3.6862011 -1.7678772 100 0 0
-12.696819 7.7897496 -1.3259664 100 0 0
-10.672753 8.8934717 -2.2279561 100 0 0
-11.963669 9.2698374 -0.44628519 100 0 0
-10.671374 11.96856 2.4079318 100 0 0
-12.83825 5.5554128 -1.9280261 100 0 0
-13.257468 1.3047625 0.20830679 100 0 0
-8.9256449 11.858715 0.89070517 100 0 0
-7.6591101 8.253727 1.0219644 100 0 0
-11.404861 7.8074651 -1.4222953 100 0 0
-11.64398 5.1224413 -0.86788768 100 0 0
-8.0897217 5.1155839 0.26315197 100 0 0
-14.049039 2.6058609 -1.4745951 100 0 0
-12.637659 10.154597 0.61345381 100 0 0
-9.7439384 12.306719 2.2271221 100 0 0
-11.440127 5.4028921 -2.2425497 100 0 0
-12.171415 16.536839 1.7196318 100 0 0
-11.957477 0.28541768 -0.57158488 100 0 0
-9.6790829 7.6212649 -1.7706267 100 0 0
-10.267667 12.725343 2.1674397 100 0 0
-10.845295 12.659653 1.8776627 100 0 0
-9.1265659 11.112741 -1.3388803 100 0 0
-11.851697 0.7495665 -1.628993 100 0 0
-8.7221832 5.0147262 -1.9597317 100 0 0
-11.849418 9.9927177 1.4907378 100 0 0
-12.063719 -0.49771801 -2.2590239 100 0 0
-10.914473 8.068408 2.3564045 100 0 0
-11.145832 13.106756 2.1405528 100 0 0
-11.469261 14.839861 -2.1407297 100 0 0
-10.695251 7.1608028 2.191201 100 0 0
-12.496513 6.9513941 -0.83113152 100 0 0
-12.72447 0.37201831 -0.61307108 100 0 0
-10.361822 1.0336478 -2.23979 100 0 0
-8.6509399 -0.34388182 0.59831965 100 0 0
-10.058672 4.898797 -1.7321854 100 0 0
-11.939788 0.73946571 0.82527095 100 0 0
-13.628309 8.8703737 0.61879587 100 0 0
-12.381596 9.2259111 1.67047 100 0 0
-11.358354 3.1892314 2.1391971 100 0 0
-10.498079 1.5670909 2.2977078 100 0 0
-8.6217957 11.844973 -1.5098103 100 0 0
-11.118442 11.80367 -2.2758536 100 0 0
-9.4536047 5.187933 -1.8463644 100 0 0
-10.610313 5.0770893 -2.0126178 100 0 0
-9.2834444 11.037564 1.0797164 100 0 0
-8.7399321 8.5012903 -1.1064737 100 0 0
-8.283227 3.2403183 0.25254872 100 0 0
-11.649737 6.1592331 -2.318583 100 0 0
-11.479986 13.592203 -1.682886 100 0 0
-12.016397 10.530018 -0.44953102 100 0 0
-9.6444731 12.73188 -2.1345007 100 0 0
-12.268466 12.047467 -1.1575912 100 0 0
-8.0790625 8.8384037 -0.80463147 100 0 0
-13.051941 4.7114882 0.62194347 100 0 0
-8.2578125 6.1371403 -0.70002526 100 0 0
-9.8514137 6.1826835 -2.0228715 100 0 0
-9.6898365 9.2459574 -2.3639784 100 0 0
-8.2753773 4.1548357 0.70149225 100 0 0
-8.8340063 0.98067683 -0.87869543 100 0 0
-8.7832069 4.2533369 1.8285875 100 0 0
-9.049262 5.6348076 -1.2806261 100 0 0
-9.0892572 13.608063 -2.1553292 100 0 0
-11.704797 8.0715094 2.242557 100 0 0
-10.441898 1.818169 2.0948956 100 0 0
-11.288801 14.044852 -2.28303 100 0 0
-12.260384 15.988991 0.20306957 100 0 0
-8.046773 10.792632 0.36671072 100 0 0
-10.180102 9.2779799 -2.3507621 100 0 0
-9.2315941 3.5470684 1.5870337 100 0 0
-11.319251 8.7395096 1.7495285 100 0 0
-11.454056 6.5156035 -2.3024447 100 0 0
-9.4734526 4.4962492 1.8526155 100 0 0
-12.023188 14.414299 2.1122427 100 0 0
-8.8291512 -0.60224986 0.6006161 100 0 0
-9.7697935 -0.41128182 1.9823859 100 0 0
-10.139681 2.808821 -1.6611041 100 0 0
-8.6997728 8.7120523 -1.4182949 100 0 0
-11.670504 16.009617 1.8061246 100 0 0
-8.0242863 5.8139534 -0.47869152 100 0 0
-10.962714 2.4849863 1.7921276 100 0 0
-7.830224 3.0171862 0.74299538 100 0 0
-9.6357965 12.379086 -2.05248 100 0 0
-9.6281414 9.0607862 2.226505 100 0 0
-9.5311098 7.8284903 2.1458342 100 0 0
-11.832853 2.747139 2.2125013 100 0 0
-11.484118 9.5061636 2.1077263 100 0 0
-9.1802149 9.1977921 1.7683508 100 0 0
-11.121871 11.920609 -0.86845404 100 0 0
-12.382194 11.485554 -1.3427093 100 0 0
-9.6913052 9.8774433 1.9889458 100 0 0
-12.805942 5.806632 0.92238051 100 0 0
-11.284295 11.130302 2.1920278 100 0 0
-11.765435 4.2013979 -0.31582808 100 0 0
-12.532847 -0.65782678 0.89556509 100 0 0
