# .PCD v0.7 - Point Cloud Data file format
VERSION 0.7
FIELDS x y z rgb
SIZE 4 4 4 4
TYPE F F F F
COUNT 1 1 1 1
WIDTH 1059
HEIGHT 1
VIEWPOINT 0 0 0 1 0 0 0
POINTS 1059
DATA ascii
18.081398 -1.9958445 -0.97048432 3.5873241e-41
20.884405 -7.2346306 0.7400651 3.5873241e-41
22.562428 -2.7866838 2.586328 3.5873241e-41
22.418259 -16.659346 -0.30786356 3.5873241e-41
-4.9039397 1.6719528 1.691125 3.5873241e-41
8.038105 5.0419197 -2.7773364 3.5873241e-41
1.4423689 4.8099203 -0.51052648 3.5873241e-41
19.18483 -0.34088323 1.7434034 3.5873241e-41
16.143047 1.251737 0.76501137 3.5873241e-41
21.017912 -4.6052217 -1.177645 3.5873241e-41
9.5957899 3.9206297 4.4733377 3.5873241e-41
21.15243 -4.4160695 2.8905714 3.5873241e-41
9.075614 4.8213348 -1.0599787 3.5873241e-41
1.2120056 4.8630738 2.8240864 3.5873241e-41
1.2063472 4.3763294 -2.9230616 3.5873241e-41
19.587219 -1.1703057 1.62321 3.5873241e-41
-1.9161 3.6274681 1.1210606 3.5873241e-41
21.413504 -4.9932528 0.24224716 3.5873241e-41
16.309284 0.83294773 3.5917406 3.5873241e-41
20.492664 -7.7901359 -1.7414712 3.5873241e-41
4.6907678 5.2836809 1.9180176 3.5873241e-41
5.248209 5.0124955 -0.24872874 3.5873241e-41
13.334984 3.2389534 0.97466207 3.5873241e-41
13.897931 2.4198523 2.6917794 3.5873241e-41
5.2808447 4.5643272 1.8478901 3.5873241e-41
21.928984 -16.313362 -0.39940268 3.5873241e-41
19.399733 -3.0186503 -2.0589273 3.5873241e-41
13.675949 2.1303632 -0.1999138 3.5873241e-41
17.581478 -0.6870535 -0.12200131 3.5873241e-41
10.660316 4.0160179 0.55452836 3.5873241e-41
-6.8954945 0.60630524 -3.1529295 3.5873241e-41
20.16448 -16.01568 -0.24222031 3.5873241e-41
1.4632672 4.2115536 0.91570812 3.5873241e-41
13.65029 2.5133402 3.1167195 3.5873241e-41
23.879299 -14.716017 1.7251228 3.5873241e-41
11.299598 3.4807291 -3.6301107 3.5873241e-41
9.8010387 4.044301 2.5924144 3.5873241e-41
-2.4467418 2.9633429 -3.5997069 3.5873241e-41
0.024364697 4.2468915 -0.14581975 3.5873241e-41
2.3167615 4.5060935 3.0950096 3.5873241e-41
-2.1733885 3.1093493 -2.1177511 3.5873241e-41
1.9474988 4.4091215 -3.5368824 3.5873241e-41
10.02889 4.2685595 -1.1568614 3.5873241e-41
-5.3493905 1.6610569 0.050027929 3.5873241e-41
8.3062363 4.2006097 -2.5859053 3.5873241e-41
12.932013 2.7225494 3.7141426 3.5873241e-41
8.1842117 4.5776377 1.8588086 3.5873241e-41
22.460695 -8.8257818 -0.41859272 3.5873241e-41
24.932362 -10.968871 1.9876252 3.5873241e-41
-2.7515309 2.8953681 2.7751346 3.5873241e-41
6.1563702 4.943768 1.1232206 3.5873241e-41
22.527266 -8.8883276 0.91663831 3.5873241e-41
-5.0669413 1.9492881 -1.8741106 3.5873241e-41
7.0133414 4.746645 -0.86241275 3.5873241e-41
7.8136106 4.2652016 -0.26054624 3.5873241e-41
11.757064 3.4865563 -0.16618623 3.5873241e-41
16.569021 1.1321099 -1.0513085 3.5873241e-41
12.549731 3.3007841 -2.3682404 3.5873241e-41
20.439259 -2.8528035 2.9232359 3.5873241e-41
-3.3916831 2.5800061 -0.12812348 3.5873241e-41
23.623987 -9.3076334 -1.2998481 3.5873241e-41
2.241936 4.6803036 -3.207046 3.5873241e-41
-4.7238684 2.1062608 -1.311559 3.5873241e-41
17.726732 -0.81523317 -2.4649088 3.5873241e-41
14.909266 1.4060169 2.1294515 3.5873241e-41
21.254602 -8.0329342 2.9003654 3.5873241e-41
21.150099 -11.277078 -2.4950747 3.5873241e-41
1.3534868 4.0594115 -1.0144994 3.5873241e-41
21.8757 -7.143342 -1.3991971 3.5873241e-41
-4.7898602 1.9427975 2.0079496 3.5873241e-41
-4.1548805 2.6709113 0.037128579 3.5873241e-41
-4.9238553 1.6234207 0.63454413 3.5873241e-41
0.41211045 4.3184471 1.4227589 3.5873241e-41
20.100178 -12.268027 1.9603891 3.5873241e-41
7.4115896 4.6745663 0.16175199 3.5873241e-41
19.953203 -4.927731 1.4341679 3.5873241e-41
20.983492 -8.8605986 -1.2877104 3.5873241e-41
22.489716 -14.304582 -0.09683834 3.5873241e-41
22.117126 -10.972078 0.72760314 3.5873241e-41
18.037378 -0.50331032 2.4906259 3.5873241e-41
10.001718 4.3549433 -0.2052736 3.5873241e-41
10.382872 4.1771383 2.490272 3.5873241e-41
18.824032 -0.64486587 -0.31288457 3.5873241e-41
-0.53980643 4.0630918 -2.8748412 3.5873241e-41
2.0747778 4.6751237 1.0112894 3.5873241e-41
3.8038657 5.3680019 3.297946 3.5873241e-41
20.508438 -4.5243459 2.0669296 3.5873241e-41
3.1475401 4.6516728 1.1645219 3.5873241e-41
5.8813806 5.0236049 2.8459051 3.5873241e-41
18.848135 -0.73659402 -2.6228526 3.5873241e-41
9.6979685 4.3718734 0.62329489 3.5873241e-41
10.798255 3.4686475 1.0625561 3.5873241e-41
-5.5913649 1.3821375 1.0410527 3.5873241e-41
1.735981 4.6306958 -1.8594636 3.5873241e-41
18.111994 -0.5750345 -2.9252133 3.5873241e-41
-5.847486 1.3133168 0.33033943 3.5873241e-41
1.0429727 4.5751491 1.1544453 3.5873241e-41
-4.2488489 2.0865977 0.90104002 3.5873241e-41
23.128138 -8.3852777 1.0673418 3.5873241e-41
9.2307177 4.3090615 -1.1848313 3.5873241e-41
20.070526 -3.7434888 2.4109664 3.5873241e-41
-1.7722061 3.5387046 -3.0137599 3.5873241e-41
10.532026 4.192986 -2.7363274 3.5873241e-41
21.937958 -13.209432 0.61904037 3.5873241e-41
16.461004 0.97000897 3.8630815 3.5873241e-41
21.549225 -5.8890638 -0.25757569 3.5873241e-41
7.6542678 4.5890622 -0.12974329 3.5873241e-41
-4.8810611 1.5604559 3.2701862 3.5873241e-41
21.805977 -13.888728 1.34883 3.5873241e-41
21.547592 -13.002928 1.0424405 3.5873241e-41
19.254511 -3.219136 -0.58446229 3.5873241e-41
19.385448 -1.9381318 2.6294851 3.5873241e-41
9.1877632 4.6194658 -1.2333273 3.5873241e-41
7.4003553 4.9093628 3.2128513 3.5873241e-41
18.985128 -6.0316553 2.5418057 3.5873241e-41
-5.6707158 1.2126778 2.1161947 3.5873241e-41
4.8843422 5.4222846 -3.0004499 3.5873241e-41
6.9658222 4.5783782 1.6254286 3.5873241e-41
11.794827 3.3231854 -3.3839729 3.5873241e-41
-5.0899305 1.7704962 1.653986 3.5873241e-41
16.473852 -1.7233211 3.2942908 3.5873241e-41
23.613501 -14.438242 -1.1211089 3.5873241e-41
1.5928605 4.5825572 2.4452333 3.5873241e-41
17.383804 0.76965976 -0.94148666 3.5873241e-41
8.406106 4.6665907 -1.9721318 3.5873241e-41
-1.9292412 3.4339671 0.22658674 3.5873241e-41
-6.5866513 0.2574611 -1.4625155 3.5873241e-41
-0.63704789 3.9618518 1.6892192 3.5873241e-41
19.285385 -3.0996208 0.68477774 3.5873241e-41
17.102949 0.46083939 -0.57113063 3.5873241e-41
1.6234907 4.2722526 -3.1992254 3.5873241e-41
6.1193314 4.9940019 0.7130667 3.5873241e-41
-5.8057823 1.2457911 1.3682638 3.5873241e-41
22.430426 -6.631659 2.624794 3.5873241e-41
15.942513 -0.27181783 1.33834 3.5873241e-41
-1.5379106 3.8121443 1.8907068 3.5873241e-41
-3.7621441 2.7046044 3.478879 3.5873241e-41
22.763187 -8.8654947 -1.2229975 3.5873241e-41
11.556222 3.9351213 2.2246158 3.5873241e-41
22.702497 -13.788658 -1.212714 3.5873241e-41
3.9434326 4.9578586 3.4452968 3.5873241e-41
0.7382322 4.416255 -0.2480177 3.5873241e-41
8.3256311 4.4711461 0.86453676 3.5873241e-41
5.2030668 4.8808522 0.19735721 3.5873241e-41
4.6195536 5.1848769 0.29853573 3.5873241e-41
2.5300829 4.7512331 -2.2461784 3.5873241e-41
-1.8769116 3.3991086 -1.6624241 3.5873241e-41
4.6460266 5.0324388 -0.75842333 3.5873241e-41
-1.9444734 3.5206704 -1.369081 3.5873241e-41
-2.7418923 3.1622639 -1.9222103 3.5873241e-41
4.907618 5.0595427 2.7897401 3.5873241e-41
10.47673 3.8204169 0.44007015 3.5873241e-41
16.268017 0.99046332 -1.5913743 3.5873241e-41
24.154268 -10.258024 -0.44180304 3.5873241e-41
21.589397 -15.556352 -1.3249329 3.5873241e-41
3.4788532 4.9072299 -1.2947021 3.5873241e-41
23.056017 -7.0975165 2.0526724 3.5873241e-41
20.347973 -5.4120035 0.28603819 3.5873241e-41
1.4613582 4.5746632 0.30891821 3.5873241e-41
24.135677 -13.914286 1.3370507 3.5873241e-41
14.935297 1.1272634 2.3717906 3.5873241e-41
7.3396544 4.0740099 3.846319 3.5873241e-41
17.164446 -0.84312338 -0.75796878 3.5873241e-41
10.000077 4.3331137 3.6280832 3.5873241e-41
15.144186 1.2054427 3.0164666 3.5873241e-41
24.963987 -10.66609 -0.84309095 3.5873241e-41
7.8201818 4.7062116 1.4649434 3.5873241e-41
3.8239353 4.6882229 -2.8647966 3.5873241e-41
8.2923279 4.6434965 -1.1354771 3.5873241e-41
0.46311694 4.2087646 -1.0861541 3.5873241e-41
19.620649 -1.4058551 2.272048 3.5873241e-41
1.1833229 4.3228936 1.2594035 3.5873241e-41
22.160936 -10.869149 -0.47678521 3.5873241e-41
-0.45177752 4.1752391 1.1176392 3.5873241e-41
6.8884578 4.8196316 0.41811612 3.5873241e-41
19.181936 -2.9136236 -1.5569714 3.5873241e-41
15.777929 1.3578554 -1.2853415 3.5873241e-41
-6.7496848 0.3477504 2.7639489 3.5873241e-41
5.161305 5.0588403 2.7409732 3.5873241e-41
18.292213 -0.18765785 -1.4878335 3.5873241e-41
-3.6023121 2.3894811 -3.6798184 3.5873241e-41
21.731697 -15.447754 -0.61779302 3.5873241e-41
22.480751 -4.0548081 1.7609806 3.5873241e-41
-1.3625851 3.7343757 1.7032776 3.5873241e-41
22.852957 -12.479983 -1.8784373 3.5873241e-41
-0.99379826 3.5430665 -2.8216355 3.5873241e-41
-5.3250198 1.0966408 2.0892675 3.5873241e-41
11.082338 4.100121 -2.7984021 3.5873241e-41
-1.1137601 3.7523131 3.0422149 3.5873241e-41
14.438316 2.6079288 -2.9339373 3.5873241e-41
9.5772524 4.2527847 -1.8790939 3.5873241e-41
13.131955 3.62134 3.4972978 3.5873241e-41
0.0090634553 4.1938086 -0.49793792 3.5873241e-41
-1.0241232 3.7578475 -0.11835087 3.5873241e-41
23.338255 -6.0834508 1.4629874 3.5873241e-41
21.520002 -8.3976517 0.90307575 3.5873241e-41
0.067677096 4.5271974 -1.8580507 3.5873241e-41
-1.5796707 3.742382 -0.3437393 3.5873241e-41
21.630213 -15.044666 0.149987 3.5873241e-41
-1.7509601 3.323216 1.4547067 3.5873241e-41
18.580578 -2.651077 3.2319443 3.5873241e-41
16.660418 1.1760408 -3.2476969 3.5873241e-41
22.355495 -7.9833422 -1.1016464 3.5873241e-41
8.197422 4.6933966 4.1290932 3.5873241e-41
10.950496 3.9939625 -3.5099187 3.5873241e-41
9.6371183 4.4790969 -3.1869195 3.5873241e-41
21.094547 -10.01254 1.6271889 3.5873241e-41
17.221788 0.20667119 1.6376722 3.5873241e-41
17.181635 0.43802902 -2.1666167 3.5873241e-41
-0.38607204 3.7457008 3.2964106 3.5873241e-41
23.242662 -10.111106 2.1367249 3.5873241e-41
23.973295 -16.269482 -0.77711421 3.5873241e-41
5.6931658 5.1989813 0.53517008 3.5873241e-41
18.877378 -2.3612716 0.4281114 3.5873241e-41
8.0610828 4.5573606 1.4089459 3.5873241e-41
5.0412054 4.7395849 -0.99382043 3.5873241e-41
12.948044 2.5296969 3.5950577 3.5873241e-41
3.4894705 5.0669179 0.091769412 3.5873241e-41
23.41268 -7.0396814 -2.4510505 3.5873241e-41
9.3915482 4.5787773 4.5961294 3.5873241e-41
16.194342 1.0009801 0.92727172 3.5873241e-41
18.395544 -3.7920089 0.73098576 3.5873241e-41
7.7014527 4.642796 0.91074449 3.5873241e-41
16.587154 -0.43670127 3.3532026 3.5873241e-41
23.888956 -8.0184259 -0.52839875 3.5873241e-41
18.86908 -1.2817262 -1.1796445 3.5873241e-41
-3.9648449 2.3654048 0.51281875 3.5873241e-41
3.9790511 5.2265315 2.3182938 3.5873241e-41
9.1925392 4.5836382 -0.63713163 3.5873241e-41
6.7476234 4.9478803 -2.8428416 3.5873241e-41
6.738194 4.9663391 -3.0926158 3.5873241e-41
-0.21792056 4.2788563 -1.8325745 3.5873241e-41
8.9817781 4.6188397 -0.489263 3.5873241e-41
21.190928 -7.8188839 0.082115002 3.5873241e-41
-5.0664287 1.444157 -0.58047843 3.5873241e-41
6.4339685 4.6351819 3.4756413 3.5873241e-41
2.6452231 4.6065063 -0.83131391 3.5873241e-41
15.587818 1.8759546 -2.8342178 3.5873241e-41
-6.799953 0.38455862 3.5819247 3.5873241e-41
4.7524333 4.9272976 -0.56826699 3.5873241e-41
11.489821 3.805975 -0.79186898 3.5873241e-41
14.644296 1.9284115 -2.8175561 3.5873241e-41
12.633539 3.352098 -3.7059121 3.5873241e-41
18.009367 0.32547548 2.758419 3.5873241e-41
19.230253 -2.229661 -1.748577 3.5873241e-41
-2.5654848 2.9630449 -0.63046461 3.5873241e-41
-2.2176347 3.323221 -2.8648648 3.5873241e-41
6.6619906 4.4399667 -1.5340983 3.5873241e-41
-4.5072489 1.8362545 0.78187603 3.5873241e-41
-2.7074935 2.8827703 -0.35659906 3.5873241e-41
22.988422 -16.83025 -0.65859187 3.5873241e-41
2.9897456 4.8890953 -1.9749203 3.5873241e-41
19.436047 -2.9439287 -2.7485752 3.5873241e-41
21.724127 -6.4967494 -2.1131811 3.5873241e-41
1.6811339 4.7460914 -0.52797401 3.5873241e-41
22.111183 -3.6872914 2.303138 3.5873241e-41
-0.31621119 4.4914999 1.4584261 3.5873241e-41
13.588005 2.6894031 1.3780508 3.5873241e-41
-2.158915 3.3516672 1.2026125 3.5873241e-41
7.3712754 4.5037694 0.23034728 3.5873241e-41
15.182614 2.3834362 -2.7240448 3.5873241e-41
-4.5981722 1.9180537 2.1730866 3.5873241e-41
-5.1628671 1.4518936 2.3447552 3.5873241e-41
23.805218 -10.90077 -2.0854378 3.5873241e-41
11.871334 3.6483936 3.2874808 3.5873241e-41
22.27356 -7.7788596 -1.453441 3.5873241e-41
7.7074099 4.6998897 -0.11785317 3.5873241e-41
0.08709085 3.9477601 2.00123 3.5873241e-41
24.539808 -15.094335 -0.78072387 3.5873241e-41
19.940969 -1.4382952 -0.31575266 3.5873241e-41
17.244738 0.19819458 2.4215877 3.5873241e-41
5.3750939 5.0338602 1.6963549 3.5873241e-41
2.3948126 4.1345596 -1.8034881 3.5873241e-41
21.892139 -11.051339 0.74888313 3.5873241e-41
-5.3760657 1.9025744 -3.0288501 3.5873241e-41
6.4326873 4.9121156 -3.3253655 3.5873241e-41
23.338511 -11.28301 2.5738475 3.5873241e-41
24.361898 -10.794951 -1.5236574 3.5873241e-41
17.970316 -1.0046169 -0.74557507 3.5873241e-41
2.5251303 4.4432154 2.9859715 3.5873241e-41
21.827085 -3.7781441 0.56575578 3.5873241e-41
1.8512228 4.7101159 -0.98210841 3.5873241e-41
22.313164 -7.7269239 -2.29317 3.5873241e-41
9.5950212 4.312489 2.4419005 3.5873241e-41
20.46217 -4.3289356 -3.4276533 3.5873241e-41
-1.6379113 3.7223206 -3.2110264 3.5873241e-41
3.9320993 4.9351087 0.96299487 3.5873241e-41
7.7729921 4.4884386 -3.3176317 3.5873241e-41
23.964693 -14.067185 1.518164 3.5873241e-41
1.8821763 4.7553635 -1.8778511 3.5873241e-41
11.789307 3.5860555 2.8509982 3.5873241e-41
7.5277343 4.7353802 1.3963866 3.5873241e-41
20.98905 -9.0570908 -0.59237725 3.5873241e-41
-2.7969575 3.0237207 -2.3576007 3.5873241e-41
23.050972 -15.891259 0.17724709 3.5873241e-41
22.920422 -17.926674 0.13092536 3.5873241e-41
21.261864 -15.850044 0.39120528 3.5873241e-41
5.5216885 5.279181 0.85795981 3.5873241e-41
0.14300217 4.2788525 1.6419612 3.5873241e-41
15.685826 1.2130969 0.88612676 3.5873241e-41
4.4365058 4.5688419 -2.5259094 3.5873241e-41
21.238087 -8.0555983 -0.54382741 3.5873241e-41
17.633902 -0.0070386245 1.9063833 3.5873241e-41
21.342073 -12.746065 -0.67397481 3.5873241e-41
16.980389 0.24728985 0.68722296 3.5873241e-41
22.178265 -6.4832864 -0.27617046 3.5873241e-41
22.438927 -4.7717524 -0.59950858 3.5873241e-41
12.046529 3.4706314 1.4160331 3.5873241e-41
21.538404 -6.8402214 -0.17224929 3.5873241e-41
13.336687 2.7342343 1.0959121 3.5873241e-41
22.148996 -6.9751706 -0.36688828 3.5873241e-41
11.495403 3.7154646 -3.0258312 3.5873241e-41
17.299267 -0.70413923 -3.6131756 3.5873241e-41
6.8133001 4.9090962 1.7059625 3.5873241e-41
23.781933 -11.473629 2.379673 3.5873241e-41
1.0691415 4.4566345 -0.72832215 3.5873241e-41
5.2037711 5.1104379 -1.1413143 3.5873241e-41
14.433745 2.9668629 3.7014236 3.5873241e-41
4.2788153 4.4429049 -3.322906 3.5873241e-41
12.035867 4.20016 2.8652396 3.5873241e-41
7.6683865 4.2449861 2.9067392 3.5873241e-41
12.878673 2.9833715 2.6819263 3.5873241e-41
2.5076473 4.7388444 -0.42881671 3.5873241e-41
8.115387 4.3318095 -2.6046412 3.5873241e-41
-3.946666 2.1334991 2.2202017 3.5873241e-41
7.9631929 4.6329284 -0.68234551 3.5873241e-41
0.46791163 3.9642904 -0.60336792 3.5873241e-41
13.443192 2.8534465 1.9272344 3.5873241e-41
19.23707 -2.5682657 -2.7172368 3.5873241e-41
23.598503 -13.125065 1.6471777 3.5873241e-41
22.871458 -10.993937 -2.3277736 3.5873241e-41
20.359661 -3.0062013 1.4253942 3.5873241e-41
11.686773 3.7379041 0.19430825 3.5873241e-41
14.838716 1.761241 -1.7820296 3.5873241e-41
-1.7311213 3.7407002 1.5773317 3.5873241e-41
22.481346 -5.5834045 2.5976768 3.5873241e-41
9.5151634 4.3402286 -3.2556121 3.5873241e-41
19.346516 -2.021579 -3.1217506 3.5873241e-41
0.15533753 4.1784945 0.51383877 3.5873241e-41
19.18465 -3.6905212 -3.2940228 3.5873241e-41
21.572994 -10.668904 2.8687692 3.5873241e-41
11.918314 3.9622993 3.0322862 3.5873241e-41
22.250755 -13.69461 -0.61387992 3.5873241e-41
-7.0805097 0.23759505 -2.989732 3.5873241e-41
-5.9981031 1.0124767 -0.6233781 3.5873241e-41
23.8729 -7.0938363 2.3040774 3.5873241e-41
22.466911 -5.0864401 -2.0734367 3.5873241e-41
-3.1779652 2.9904613 0.53653795 3.5873241e-41
5.0993457 5.0459442 0.45867661 3.5873241e-41
20.20318 -1.8062292 -2.0729752 3.5873241e-41
18.820116 -4.1336231 2.0486057 3.5873241e-41
21.790335 -14.833318 1.1849644 3.5873241e-41
20.922739 -3.7449062 2.9128153 3.5873241e-41
9.5447197 4.0797691 -0.4971498 3.5873241e-41
3.9810369 4.4554005 -3.0052569 3.5873241e-41
9.7870569 4.1794338 4.345644 3.5873241e-41
6.0537481 4.6392322 1.0990088 3.5873241e-41
-5.5786734 1.35332 0.28608748 3.5873241e-41
0.85677779 4.3336329 2.4365776 3.5873241e-41
11.03097 3.8009379 3.9553659 3.5873241e-41
23.522722 -8.8490515 1.819824 3.5873241e-41
5.1778631 4.7934065 -2.4463346 3.5873241e-41
12.419534 3.3410163 -0.77207315 3.5873241e-41
22.719549 -6.9328957 0.31376806 3.5873241e-41
-4.3335013 2.1682074 -1.5383888 3.5873241e-41
4.3372617 5.2064567 -0.9328953 3.5873241e-41
4.5397758 4.5270028 -1.2370473 3.5873241e-41
15.322951 0.91440862 -2.4310439 3.5873241e-41
21.203691 -8.6419802 0.50792742 3.5873241e-41
9.0785246 4.2816248 -4.193491 3.5873241e-41
20.028276 -5.9490867 1.0095841 3.5873241e-41
-0.60782957 4.3951097 -3.1735771 3.5873241e-41
21.940372 -5.6430364 -2.3806825 3.5873241e-41
20.885571 -4.2701168 3.0538914 3.5873241e-41
-3.4841375 2.8941495 2.1276147 3.5873241e-41
18.299442 -2.0831294 1.1557769 3.5873241e-41
14.103167 2.6047075 3.4322553 3.5873241e-41
5.8059959 4.9633164 1.1860366 3.5873241e-41
0.82985461 4.079874 0.62647462 3.5873241e-41
12.915932 3.2831929 -3.7114708 3.5873241e-41
23.11256 -7.6951427 -2.5177336 3.5873241e-41
1.6375943 4.404448 -0.18369484 3.5873241e-41
11.885057 3.53109 1.0284572 3.5873241e-41
11.706241 3.8141046 -2.8279388 3.5873241e-41
15.45359 1.8783057 0.69876754 3.5873241e-41
-4.1729088 2.3261528 2.0124323 3.5873241e-41
10.490607 3.7867198 -1.1518757 3.5873241e-41
-6.9332089 0.3281523 -1.6051229 3.5873241e-41
20.998289 -3.4220986 2.5907643 3.5873241e-41
24.157127 -17.143209 0.10176598 3.5873241e-41
-1.0617577 3.8594666 -2.5368438 3.5873241e-41
0.25237018 3.961628 -0.68264866 3.5873241e-41
9.5462704 4.8242102 -1.1102459 3.5873241e-41
1.4518913 4.3331027 -2.1582053 3.5873241e-41
13.396543 3.1789644 2.7118983 3.5873241e-41
9.6346064 4.441978 3.271426 3.5873241e-41
1.9871954 4.9735661 -0.79520899 3.5873241e-41
-1.5854855 3.7039475 1.8000131 3.5873241e-41
22.693243 -8.6428413 2.4317496 3.5873241e-41
2.6800942 4.5469756 2.9704423 3.5873241e-41
18.188131 -0.59948611 -0.94592029 3.5873241e-41
-6.8176298 0.40336543 -1.5913333 3.5873241e-41
8.6370382 4.4065166 -4.580956 3.5873241e-41
17.072687 -0.15519889 -3.3187993 3.5873241e-41
16.236456 1.1751586 -2.595387 3.5873241e-41
6.7587271 4.7874436 3.4364483 3.5873241e-41
16.757805 -0.018416999 2.6117196 3.5873241e-41
-5.8389883 1.1617147 1.3151201 3.5873241e-41
21.615765 -5.0605712 0.10820761 3.5873241e-41
0.72139663 4.1965685 -0.53086293 3.5873241e-41
17.242687 0.028564483 3.14891 3.5873241e-41
-3.2675035 2.6295006 1.7958959 3.5873241e-41
18.213057 -4.7344451 1.9945139 3.5873241e-41
-0.074881665 3.8842297 -1.6410527 3.5873241e-41
19.215977 -3.1070595 1.9614041 3.5873241e-41
-2.0329494 3.2754834 2.685555 3.5873241e-41
8.1059599 4.1638427 -4.1750731 3.5873241e-41
22.810946 -14.169354 -1.1907332 3.5873241e-41
21.786036 -11.538379 1.0134118 3.5873241e-41
22.087843 -16.550207 0.83989477 3.5873241e-41
0.48672286 4.3474512 -2.832273 3.5873241e-41
18.762133 -0.89782298 -2.1658783 3.5873241e-41
18.363371 0.44318354 -3.6454496 3.5873241e-41
9.6248789 4.247045 2.6296656 3.5873241e-41
4.6459484 4.6992159 0.76673532 3.5873241e-41
20.936661 -3.0229759 1.624019 3.5873241e-41
1.6700573 5.0771012 0.3983236 3.5873241e-41
21.879545 -12.727697 -0.1344156 3.5873241e-41
-3.0171516 2.9451809 2.9952073 3.5873241e-41
14.543329 0.86509919 0.40011206 3.5873241e-41
17.539017 -0.12693772 -3.0874672 3.5873241e-41
22.480598 -11.134991 0.9774406 3.5873241e-41
10.209124 4.4333372 -3.8053129 3.5873241e-41
13.804073 2.5819328 3.0782485 3.5873241e-41
23.656019 -17.739212 0.75130594 3.5873241e-41
4.4586754 4.5895934 -0.66050488 3.5873241e-41
21.117361 -7.5704455 -0.019794218 3.5873241e-41
5.4086404 4.262887 -3.4514637 3.5873241e-41
19.061581 -2.2284083 -0.023579665 3.5873241e-41
22.189604 -8.4440174 2.5215321 3.5873241e-41
23.630795 -15.625852 -1.3748907 3.5873241e-41
17.096149 -1.3327132 0.9457348 3.5873241e-41
-1.581399 3.2183075 0.22013833 3.5873241e-41
0.51605558 4.1610188 -1.061025 3.5873241e-41
21.844313 -11.602524 1.0552045 3.5873241e-41
2.2204988 4.7736559 -1.250724 3.5873241e-41
-0.225973 4.5402212 0.54320705 3.5873241e-41
0.12306603 4.7268925 -0.27196819 3.5873241e-41
1.8263429 4.7934723 -1.9739141 3.5873241e-41
1.7609428 4.595973 -1.9938934 3.5873241e-41
0.66494644 4.4354668 -0.89610183 3.5873241e-41
5.8873091 4.9980364 -1.5135564 3.5873241e-41
4.7649045 4.5959287 -1.2167706 3.5873241e-41
18.392744 -1.7341123 -1.6645175 3.5873241e-41
-3.7688501 2.6560569 0.4203808 3.5873241e-41
19.437654 -3.620044 -0.18398753 3.5873241e-41
8.7453527 4.3993921 0.92963505 3.5873241e-41
9.3583708 4.845511 -2.1167338 3.5873241e-41
15.866001 0.0036416871 -2.0293427 3.5873241e-41
3.7611189 4.9130912 1.1204833 3.5873241e-41
24.235872 -12.69523 0.089681424 3.5873241e-41
1.7269007 4.5066438 0.58215386 3.5873241e-41
-1.4718093 3.3597686 -2.1786871 3.5873241e-41
-3.1047235 2.6046484 -2.539676 3.5873241e-41
15.452042 1.1568758 3.3806779 3.5873241e-41
19.019541 -3.0381882 0.1136185 3.5873241e-41
22.205118 -6.3230524 -2.1956639 3.5873241e-41
16.187313 0.30984452 -1.7931852 3.5873241e-41
15.672657 2.4857211 -1.0562296 3.5873241e-41
0.95173401 4.5047617 -1.1867601 3.5873241e-41
13.393804 2.9848106 1.8639058 3.5873241e-41
11.121521 3.3014219 0.69007903 3.5873241e-41
21.749895 -8.2209845 -0.46229419 3.5873241e-41
20.144896 -3.6178787 -2.467772 3.5873241e-41
7.8249316 4.9644079 -0.51535791 3.5873241e-41
15.117853 1.7350702 -2.9700859 3.5873241e-41
19.210737 -2.1694725 2.3902009 3.5873241e-41
21.843033 -15.093898 -0.21946885 3.5873241e-41
12.36645 3.3800631 -0.81935006 3.5873241e-41
10.343745 3.7412732 -3.5220299 3.5873241e-41
-0.55478579 4.3582587 1.990615 3.5873241e-41
21.39484 -5.2790546 1.1585127 3.5873241e-41
17.782223 -0.37709829 -3.0798142 3.5873241e-41
-5.2454395 1.4957958 -3.2889116 3.5873241e-41
19.132509 -0.15014309 -0.25904816 3.5873241e-41
12.566928 3.4045098 2.4063151 3.5873241e-41
11.104581 3.3514755 3.5590775 3.5873241e-41
24.058384 -15.559074 0.28816605 3.5873241e-41
8.2251654 4.7306013 0.36762023 3.5873241e-41
8.9051113 4.4978123 -2.0340395 3.5873241e-41
2.3084829 4.8091555 -2.6798146 3.5873241e-41
22.29286 -8.259531 -0.45606792 3.5873241e-41
14.064713 2.4759839 -3.1974428 3.5873241e-41
11.020447 4.1482077 -1.1004438 3.5873241e-41
14.060727 1.5805584 -2.2994037 3.5873241e-41
18.38303 -0.0036009434 3.7276542 3.5873241e-41
9.4965925 4.1580868 -1.8053026 3.5873241e-41
17.866837 -0.4426046 2.240133 3.5873241e-41
-2.7229903 3.2692277 -1.9373392 3.5873241e-41
0.034953222 4.1561651 1.4937602 3.5873241e-41
-1.1040127 3.8575077 3.3594747 3.5873241e-41
14.544789 2.1228101 -2.8543477 3.5873241e-41
22.263758 -9.3384485 0.11088543 3.5873241e-41
-3.2622986 2.6520855 -0.3197723 3.5873241e-41
19.644278 -6.4997358 0.93317032 3.5873241e-41
14.063246 1.9611965 -1.2212197 3.5873241e-41
20.945623 -5.4039264 -0.45970991 3.5873241e-41
8.0631447 4.6346073 0.41796684 3.5873241e-41
-0.32153231 4.1283503 0.29036668 3.5873241e-41
20.332485 -2.3205667 3.3573654 3.5873241e-41
11.877821 3.0039408 1.8600407 3.5873241e-41
17.542837 0.40185553 -2.3420343 3.5873241e-41
21.547537 -15.802473 -0.56395584 3.5873241e-41
-0.32192159 4.227478 0.37142316 3.5873241e-41
5.5599065 4.6944289 -0.059376761 3.5873241e-41
22.42462 -15.027877 -0.65150625 3.5873241e-41
20.338614 -2.3961968 2.4210594 3.5873241e-41
-4.2757907 2.2211602 2.0458639 3.5873241e-41
-6.2654233 1.0129497 1.191118 3.5873241e-41
21.598099 -12.202076 1.9332973 3.5873241e-41
1.9125738 4.4012856 -2.3376925 3.5873241e-41
-2.3160973 3.1710408 0.90038574 3.5873241e-41
15.044387 3.1053469 -3.8324292 3.5873241e-41
22.975191 -12.462278 1.9625914 3.5873241e-41
23.357796 -8.1510077 -0.49107999 3.5873241e-41
22.688505 -8.1478472 0.052571449 3.5873241e-41
16.138866 0.40498149 2.4485931 3.5873241e-41
13.810498 1.7626042 2.8457837 3.5873241e-41
10.384778 4.2974019 2.1518438 3.5873241e-41
2.9094594 4.7036848 -3.1321912 3.5873241e-41
4.2141347 5.1230383 -2.8073878 3.5873241e-41
16.740049 0.02543018 3.1576586 3.5873241e-41
21.331209 -18.272236 0.0081896055 3.5873241e-41
-1.3711762 3.7968738 2.352284 3.5873241e-41
2.7881169 4.7026715 -2.0752184 3.5873241e-41
-1.9703364 3.4934006 -1.5748382 3.5873241e-41
5.7966709 5.1447568 -2.6456718 3.5873241e-41
16.985273 0.31894371 -1.593244 3.5873241e-41
10.852204 4.0685577 -0.73030102 3.5873241e-41
21.325361 -15.456157 0.73763257 3.5873241e-41
22.165298 -14.269001 -1.5741616 3.5873241e-41
19.56567 -8.7186642 -2.100641 3.5873241e-41
7.5688348 4.8849306 -0.52843046 3.5873241e-41
7.5052052 4.4861712 1.0151112 3.5873241e-41
-2.5340779 3.1753352 1.7117951 3.5873241e-41
22.67872 -11.884727 2.0305808 3.5873241e-41
18.440245 -3.7017853 3.2438807 3.5873241e-41
7.887259 4.516139 0.51080018 3.5873241e-41
22.296093 -4.4987636 3.4417272 3.5873241e-41
-1.4124556 3.584223 -1.2562119 3.5873241e-41
6.5803676 4.774447 -0.68332219 3.5873241e-41
16.578875 0.88900715 -2.5243106 3.5873241e-41
-4.4608946 2.4999769 3.0811658 3.5873241e-41
6.48593 5.2085404 -2.4285491 3.5873241e-41
3.0506203 4.4637518 0.41350198 3.5873241e-41
19.556215 -4.8937311 -1.5950179 3.5873241e-41
19.499777 -4.2746644 -2.154654 3.5873241e-41
22.198656 -11.085018 0.68785608 3.5873241e-41
19.694958 -4.2647533 2.801667 3.5873241e-41
21.982002 -11.013512 -2.1320801 3.5873241e-41
11.096552 3.9000282 2.4605184 3.5873241e-41
20.852182 -4.3818793 0.021471273 3.5873241e-41
13.056842 2.8144069 -3.0452118 3.5873241e-41
17.679693 0.1460398 -2.465348 3.5873241e-41
7.2244492 4.9217734 -1.7480156 3.5873241e-41
21.890757 -9.1195164 -1.534701 3.5873241e-41
8.4755411 4.5695 2.7742877 3.5873241e-41
0.23091462 3.9910343 0.87548822 3.5873241e-41
22.703827 -10.639147 0.35337225 3.5873241e-41
-6.6260715 0.219313 0.31172812 3.5873241e-41
13.221121 3.053268 -0.050740428 3.5873241e-41
6.6011791 4.8077259 -3.614563 3.5873241e-41
8.8878965 4.7470651 -4.2049084 3.5873241e-41
24.882273 -15.761109 0.73231977 3.5873241e-41
11.337877 3.9506123 2.0318313 3.5873241e-41
-4.7789617 1.8664277 -0.36321801 3.5873241e-41
15.275906 2.1615145 3.4431508 3.5873241e-41
22.382973 -11.845833 -1.2581803 3.5873241e-41
7.9582295 4.740355 1.9473734 3.5873241e-41
20.704081 -6.3859191 1.6487674 3.5873241e-41
8.995513 4.3409171 1.6273656 3.5873241e-41
9.5925388 5.057229 1.57997 3.5873241e-41
11.748463 3.5335047 -2.2663641 3.5873241e-41
20.253641 -2.5218501 -0.15941618 3.5873241e-41
10.269342 4.2765784 4.5747919 3.5873241e-41
23.824577 -15.324862 0.14609909 3.5873241e-41
-4.1629467 2.2133179 1.8659863 3.5873241e-41
12.720942 2.254411 3.7511206 3.5873241e-41
6.6352038 4.6353831 1.0122617 3.5873241e-41
1.7563524 4.4167671 1.8577234 3.5873241e-41
-0.57836211 4.3093996 -2.8347445 3.5873241e-41
14.307989 2.078392 2.7552488 3.5873241e-41
5.8371301 4.7968221 3.807538 3.5873241e-41
22.184399 -8.6566267 1.4164515 3.5873241e-41
23.834757 -14.873601 -1.2706519 3.5873241e-41
21.115681 -6.5727701 1.5362774 3.5873241e-41
10.481751 3.8676386 -3.8782954 3.5873241e-41
-0.50743985 3.9494839 -0.91903681 3.5873241e-41
0.061456442 4.1495843 1.3167787 3.5873241e-41
12.947168 3.1860473 -1.5399793 3.5873241e-41
-3.3660793 2.8679636 -1.5776769 3.5873241e-41
10.589207 4.1409135 3.723877 3.5873241e-41
20.644794 -11.983829 0.66124511 3.5873241e-41
21.892273 -14.076187 1.6947047 3.5873241e-41
12.704386 3.3303545 -1.3297175 3.5873241e-41
-4.7549591 1.9164864 -2.0062032 3.5873241e-41
16.402208 -0.040746365 -0.22657448 3.5873241e-41
23.32218 -6.4753909 3.0270746 3.5873241e-41
15.587857 1.5780784 -0.43062493 3.5873241e-41
6.2478924 5.2178922 -1.215349 3.5873241e-41
22.499907 -4.6461167 1.4706463 3.5873241e-41
12.444862 3.5030255 2.712507 3.5873241e-41
19.04147 -5.296196 -2.8169472 3.5873241e-41
-0.17076886 3.7635467 -1.1300321 3.5873241e-41
8.6210699 4.8894401 -1.5302664 3.5873241e-41
21.410738 -6.4520807 2.6408432 3.5873241e-41
13.76406 1.943961 -2.8117137 3.5873241e-41
15.524063 1.0974679 3.1785748 3.5873241e-41
16.797787 0.43987215 -1.9808048 3.5873241e-41
24.147104 -11.570591 -0.12211878 3.5873241e-41
21.263298 -4.0218186 0.4434804 3.5873241e-41
5.5739574 5.054667 0.220339 3.5873241e-41
-2.1861746 3.2647977 3.1605635 3.5873241e-41
13.788544 2.0938151 3.4509323 3.5873241e-41
13.95364 2.7280676 0.7745924 3.5873241e-41
22.89418 -17.175406 -0.73845536 3.5873241e-41
18.065985 -2.4203739 2.4264352 3.5873241e-41
4.3291345 5.0853248 -0.29563794 3.5873241e-41
18.78422 -1.5394913 -1.7824885 3.5873241e-41
2.9262388 4.4121704 1.775705 3.5873241e-41
11.114779 3.8796241 1.0524957 3.5873241e-41
10.572413 3.6282623 -0.33390582 3.5873241e-41
14.153868 2.9451995 0.80578494 3.5873241e-41
21.921036 -3.7469068 2.6080852 3.5873241e-41
-2.304328 3.5942132 -1.1029629 3.5873241e-41
-4.268775 2.1475296 0.75897545 3.5873241e-41
18.826113 -0.70332021 3.4920087 3.5873241e-41
16.8752 0.66380423 -2.6894722 3.5873241e-41
17.215549 -2.1137173 -3.0438142 3.5873241e-41
13.320181 2.2136581 -1.9288057 3.5873241e-41
9.5890408 4.5900683 1.2704347 3.5873241e-41
0.81372625 4.2380037 -0.3621555 3.5873241e-41
5.8851376 5.0156875 -2.7165115 3.5873241e-41
15.636182 1.8505145 0.62567574 3.5873241e-41
-0.059264649 4.3422852 0.42827839 3.5873241e-41
14.691653 1.7655931 -3.8087258 3.5873241e-41
11.769895 3.3599963 1.6657394 3.5873241e-41
14.093657 2.3503892 1.1982085 3.5873241e-41
8.5488434 4.3477011 1.8886561 3.5873241e-41
16.573168 0.42197695 1.7101941 3.5873241e-41
2.5126009 4.8936267 -2.5111828 3.5873241e-41
22.777874 -12.391327 -0.44008839 3.5873241e-41
-5.2714705 1.6268415 2.1999576 3.5873241e-41
21.646872 -2.8996718 0.72233909 3.5873241e-41
19.577673 0.15757465 -2.5710454 3.5873241e-41
1.5175195 4.6406984 -0.42569569 3.5873241e-41
12.107603 3.6580408 2.8455653 3.5873241e-41
1.250764 4.7624278 2.4737649 3.5873241e-41
18.652771 0.078478903 -0.099047989 3.5873241e-41
10.068093 4.1052899 -1.3894237 3.5873241e-41
-7.3984652 0.17681409 -2.3235662 3.5873241e-41
19.966635 -1.9269502 0.56871283 3.5873241e-41
-4.4970102 2.1613829 1.3584772 3.5873241e-41
14.663487 2.1171474 -3.8870771 3.5873241e-41
24.494032 -15.20676 0.45036584 3.5873241e-41
9.4058266 4.3771415 0.84759593 3.5873241e-41
-6.7899599 0.64744395 2.7911594 3.5873241e-41
10.114737 4.1216688 -1.4978614 3.5873241e-41
4.6815214 5.1524916 -1.4996101 3.5873241e-41
4.7687087 4.7366714 -3.1574988 3.5873241e-41
-4.6392522 1.6485033 1.8491476 3.5873241e-41
-6.2180719 1.0685936 -1.0509101 3.5873241e-41
5.4833422 4.9732075 -2.6921062 3.5873241e-41
4.3651242 5.0295153 2.5865998 3.5873241e-41
11.560476 2.9546149 0.6566807 3.5873241e-41
2.2076705 4.5473309 1.1336333 3.5873241e-41
21.142303 -18.707008 -0.1782873 3.5873241e-41
3.1744537 4.7450805 1.0601292 3.5873241e-41
17.734121 -0.78432822 -3.2462525 3.5873241e-41
15.164795 0.96159595 0.19806394 3.5873241e-41
16.503719 -2.5131464 -0.50912452 3.5873241e-41
1.9015617 4.3916411 2.0372024 3.5873241e-41
-2.1301377 3.3171425 -3.1503744 3.5873241e-41
8.5082598 4.4495406 2.8142393 3.5873241e-41
21.716457 -10.140955 -0.48215109 3.5873241e-41
0.14780539 4.4262972 0.97972095 3.5873241e-41
15.528992 1.5700074 -0.58172125 3.5873241e-41
13.305963 2.4573312 -1.3042995 3.5873241e-41
4.7723322 4.5100145 -1.4196067 3.5873241e-41
11.853392 3.9875853 -2.4194877 3.5873241e-41
12.709682 3.1229503 1.4409962 3.5873241e-41
11.596589 4.025609 3.3059804 3.5873241e-41
-3.5604718 2.469264 1.3834456 3.5873241e-41
7.8430958 4.6676979 2.0992596 3.5873241e-41
22.686272 -15.44124 1.1597341 3.5873241e-41
20.550379 -4.8793478 0.12786932 3.5873241e-41
6.1214638 5.0996866 0.083146423 3.5873241e-41
15.770741 0.61020339 -2.2309475 3.5873241e-41
-4.4689116 2.1399117 -3.3026748 3.5873241e-41
23.616816 -12.94368 0.78332454 3.5873241e-41
15.405247 1.5521164 -2.8198988 3.5873241e-41
-4.9383531 1.8377792 0.14854728 3.5873241e-41
8.4331083 4.7660122 -1.1184287 3.5873241e-41
18.744019 -3.2606978 2.5039937 3.5873241e-41
16.106722 0.3309184 1.6515546 3.5873241e-41
11.661345 3.1015956 -3.1266408 3.5873241e-41
13.703356 2.5800908 3.6173661 3.5873241e-41
25.183781 -7.6338401 -1.9778796 3.5873241e-41
16.613411 0.34969899 -2.9208412 3.5873241e-41
14.785939 1.6328654 2.0974534 3.5873241e-41
8.8391066 4.1561604 -2.2459037 3.5873241e-41
17.881155 -0.34197408 1.9025351 3.5873241e-41
19.285215 -3.5662034 2.5083785 3.5873241e-41
20.606142 -3.4537988 -2.8931117 3.5873241e-41
-4.9604664 1.933942 -3.911531 3.5873241e-41
12.052538 2.8325164 1.9498127 3.5873241e-41
10.019599 4.0820274 2.9178102 3.5873241e-41
7.7903714 5.1489291 3.5512624 3.5873241e-41
21.024504 -5.8563337 2.6191399 3.5873241e-41
-0.55820411 3.549165 2.2120526 3.5873241e-41
20.581425 -6.0550966 2.5143495 3.5873241e-41
7.2991595 4.7393718 2.9377029 3.5873241e-41
2.8312361 4.7591205 -2.2404215 3.5873241e-41
14.196177 2.4928198 -2.4930799 3.5873241e-41
19.167665 -2.6129971 3.4005537 3.5873241e-41
20.374617 -3.8594718 -0.44841099 3.5873241e-41
9.3039513 3.8671262 -0.46908054 3.5873241e-41
-5.8193927 0.83876747 -2.5197227 3.5873241e-41
3.6997128 4.8512435 -0.38503584 3.5873241e-41
1.0084865 4.3758426 2.1550057 3.5873241e-41
20.605629 -7.7064247 1.6058775 3.5873241e-41
20.961496 -3.1382172 -1.6242789 3.5873241e-41
-7.2464576 0.19100188 -3.1575775 3.5873241e-41
23.955633 -11.787478 1.293851 3.5873241e-41
6.2769775 4.8277116 1.4274557 3.5873241e-41
21.873446 -8.84303 -1.499143 3.5873241e-41
-4.7373977 1.7027524 2.6317644 3.5873241e-41
9.9158602 4.1060305 -2.2046077 3.5873241e-41
23.841272 -12.990497 0.097646475 3.5873241e-41
-0.97011894 3.4844966 -1.9714209 3.5873241e-41
17.611403 -1.1105999 1.5145015 3.5873241e-41
21.812658 -18.749107 -0.68958712 3.5873241e-41
17.358862 -0.81986475 3.2641444 3.5873241e-41
15.222112 1.5825666 1.7673852 3.5873241e-41
11.92329 3.8375983 3.0516839 3.5873241e-41
8.1603251 4.6664233 -2.8653307 3.5873241e-41
22.70162 -7.3026671 -0.31189114 3.5873241e-41
3.395469 5.0319338 0.62451667 3.5873241e-41
-2.8919265 3.2882178 -0.06101203 3.5873241e-41
-0.29804316 4.1975145 2.043452 3.5873241e-41
18.552158 0.28513229 1.8403456 3.5873241e-41
8.0190268 4.9206429 4.3462548 3.5873241e-41
19.315493 -3.4250128 2.4691434 3.5873241e-41
-6.2651114 0.97140515 -2.2424524 3.5873241e-41
16.252439 -0.81064367 -1.4593495 3.5873241e-41
12.810556 2.9966261 0.1205681 3.5873241e-41
4.8869414 4.7834821 2.8117919 3.5873241e-41
9.5095053 4.0529785 -2.2068739 3.5873241e-41
21.197857 -7.6980915 0.040449582 3.5873241e-41
23.610174 -11.382543 -0.60397363 3.5873241e-41
18.956776 -2.9636505 0.42900613 3.5873241e-41
3.8777936 4.5480671 0.63895291 3.5873241e-41
-0.096607707 4.5170684 2.0685623 3.5873241e-41
14.121608 2.1108565 0.53660548 3.5873241e-41
4.9174418 5.0930839 -1.2037796 3.5873241e-41
19.364449 -3.0161898 -3.183064 3.5873241e-41
21.470627 -6.778111 0.39964849 3.5873241e-41
16.130482 1.1927207 -2.9860699 3.5873241e-41
12.429687 3.2190111 1.596477 3.5873241e-41
12.906605 1.9329482 -0.5972237 3.5873241e-41
22.308981 -7.8334737 -1.7089268 3.5873241e-41
-2.2227464 3.3212068 -3.0959921 3.5873241e-41
7.1992402 4.6527281 2.0341048 3.5873241e-41
3.0131187 4.9923177 -3.4829638 3.5873241e-41
12.018855 3.7218914 -4.2238307 3.5873241e-41
10.193088 4.0354371 -0.93775237 3.5873241e-41
15.106098 1.6811146 2.9342566 3.5873241e-41
21.136465 -3.1087973 -2.8896594 3.5873241e-41
-1.2879789 3.280808 0.28115648 3.5873241e-41
22.947046 -13.722461 0.95399356 3.5873241e-41
7.0751586 4.7734399 -1.1712772 3.5873241e-41
24.287573 -11.192726 1.1968104 3.5873241e-41
-0.41219854 3.8926427 -0.42552078 3.5873241e-41
22.356066 -4.1995063 -0.20594727 3.5873241e-41
22.203228 -6.6278954 2.530242 3.5873241e-41
-7.0579681 0.30637452 -0.73813355 3.5873241e-41
19.247894 -4.8873997 -1.1483274 3.5873241e-41
12.268628 3.0101128 2.8336616 3.5873241e-41
16.746471 0.83461124 3.2489331 3.5873241e-41
-6.3988748 0.82509851 2.0112672 3.5873241e-41
15.408082 1.975477 4.4705291 3.5873241e-41
-5.4759517 1.4798363 2.0802557 3.5873241e-41
20.265432 -3.0436993 -0.6230073 3.5873241e-41
21.054296 -8.0730305 0.73751593 3.5873241e-41
21.315617 -15.110764 -0.38137716 3.5873241e-41
7.7943497 4.8356152 3.8512018 3.5873241e-41
21.797285 -10.335407 1.6888819 3.5873241e-41
5.8213077 5.1924319 -2.7935483 3.5873241e-41
1.6360531 4.2349529 -2.135617 3.5873241e-41
0.58217174 3.9838014 -1.3029205 3.5873241e-41
19.222353 -3.6136959 -2.5042872 3.5873241e-41
18.793362 -3.3966813 2.3977189 3.5873241e-41
9.4586086 4.4120326 -1.7477901 3.5873241e-41
20.699848 -12.957748 0.18432701 3.5873241e-41
18.006657 -1.5554239 0.11195695 3.5873241e-41
1.3490046 4.5259585 1.2207202 3.5873241e-41
22.711384 -7.6808929 0.92125541 3.5873241e-41
5.9252796 4.8215027 -1.9419373 3.5873241e-41
5.4986758 4.6991243 -2.5012248 3.5873241e-41
-6.0736718 0.89490187 3.6799765 3.5873241e-41
9.4371128 4.0739651 2.6391213 3.5873241e-41
20.99621 -12.15465 -0.80381089 3.5873241e-41
5.7602415 5.1287832 -0.020937122 3.5873241e-41
21.48914 -7.8984938 -2.3494394 3.5873241e-41
5.9888062 3.9619594 -3.370724 3.5873241e-41
14.092738 2.1823404 -2.1467154 3.5873241e-41
13.695076 2.8330331 -1.0016042 3.5873241e-41
-5.897872 1.0649688 3.0773048 3.5873241e-41
16.004562 1.0814464 2.9118156 3.5873241e-41
22.814821 -11.165503 -1.5283676 3.5873241e-41
-6.8071055 0.56121469 2.4039507 3.5873241e-41
10.632235 4.3294754 -3.9148195 3.5873241e-41
4.7671633 4.929184 1.2000477 3.5873241e-41
6.7291694 5.0578504 -0.58233804 3.5873241e-41
9.6537991 4.292747 -2.6728272 3.5873241e-41
12.154441 3.93665 -2.3930328 3.5873241e-41
-6.0669756 0.67940229 -0.66718274 3.5873241e-41
23.809559 -9.343174 -2.2698612 3.5873241e-41
9.4942274 4.2226748 -1.102874 3.5873241e-41
20.79953 -6.3132172 -0.11720188 3.5873241e-41
7.198772 4.6769209 -3.7130551 3.5873241e-41
16.515976 -1.2590381 -1.3695068 3.5873241e-41
15.68735 0.76390249 0.35225245 3.5873241e-41
14.616358 2.2192683 3.975112 3.5873241e-41
13.188114 3.7758977 1.3018681 3.5873241e-41
-3.8576767 2.9143374 -3.2980642 3.5873241e-41
14.167475 2.7208943 0.96359116 3.5873241e-41
20.739506 -6.3003693 0.82910252 3.5873241e-41
-1.1138314 4.0982647 0.79445308 3.5873241e-41
22.830011 -9.837882 0.5991025 3.5873241e-41
-4.6263156 1.7522931 -2.2081227 3.5873241e-41
-3.9043329 2.6897719 -0.17044488 3.5873241e-41
21.527376 -10.006502 -2.39902 3.5873241e-41
21.3358 -7.7006335 2.4843783 3.5873241e-41
21.53043 -8.7346754 2.7464247 3.5873241e-41
2.7570202 4.8515 2.6225462 3.5873241e-41
13.2598 2.6503131 -3.4429679 3.5873241e-41
4.5177588 5.1579008 2.3269341 3.5873241e-41
15.019178 2.2216451 -3.0143185 3.5873241e-41
23.31535 -12.381185 -1.1914728 3.5873241e-41
6.7696781 4.8197875 0.66301548 3.5873241e-41
21.818014 -8.4794044 1.6169902 3.5873241e-41
23.488667 -12.224227 1.4641047 3.5873241e-41
23.38785 -11.348595 -1.6315372 3.5873241e-41
-3.3864992 3.0704403 -1.5394107 3.5873241e-41
21.200678 -9.7177391 -0.17399447 3.5873241e-41
20.516335 -3.9371121 -2.3756099 3.5873241e-41
19.76186 -1.8303742 -2.7740653 3.5873241e-41
18.654831 -0.26512221 -1.0330882 3.5873241e-41
-5.5837336 1.2509162 -0.30207297 3.5873241e-41
18.478512 0.32329494 0.40682146 3.5873241e-41
23.786373 -9.9050732 -1.4897226 3.5873241e-41
9.7117558 4.5051346 -0.96498054 3.5873241e-41
22.497828 -8.3951836 2.836158 3.5873241e-41
20.037903 -6.4815707 1.481128 3.5873241e-41
21.120075 -5.4357677 -0.043988138 3.5873241e-41
21.444897 -8.4530802 -2.1653764 3.5873241e-41
15.136379 0.61589724 -2.3208871 3.5873241e-41
22.685703 -8.8195515 1.1243993 3.5873241e-41
20.039066 -5.9894352 1.6382914 3.5873241e-41
8.0948067 5.0189018 -1.056792 3.5873241e-41
13.152454 3.1159067 2.2525294 3.5873241e-41
8.875145 4.1425018 -1.6057866 3.5873241e-41
20.803165 -11.954473 -0.70012486 3.5873241e-41
21.969936 -10.961057 -2.3424523 3.5873241e-41
7.3449411 4.6083355 -0.40378422 3.5873241e-41
7.0017853 4.9881191 0.6450516 3.5873241e-41
13.979682 1.9103565 2.5488734 3.5873241e-41
6.4378834 4.9138956 2.2983098 3.5873241e-41
-1.2857788 3.6455405 -0.11638751 3.5873241e-41
-5.9748468 0.7634244 -0.15737045 3.5873241e-41
1.3105532 4.8357663 -0.33340555 3.5873241e-41
17.521135 -0.77455598 3.2744882 3.5873241e-41
8.5405102 4.9582744 0.90220118 3.5873241e-41
0.37340596 4.0997429 0.58096075 3.5873241e-41
1.9296038 4.7010374 -3.3687303 3.5873241e-41
6.0676498 4.8630357 0.39833599 3.5873241e-41
5.7843537 4.7105007 0.4200739 3.5873241e-41
21.783617 -7.9881535 1.1736165 3.5873241e-41
16.309946 -0.072230645 3.2445514 3.5873241e-41
17.002804 -2.5266409 0.98391086 3.5873241e-41
21.171284 -6.1739874 -1.7989657 3.5873241e-41
19.680979 -2.5120916 3.4160616 3.5873241e-41
22.508919 -11.814172 1.2775648 3.5873241e-41
1.8431801 4.408927 3.5516744 3.5873241e-41
14.587146 2.1603053 -1.2362347 3.5873241e-41
16.957233 -0.36078468 1.4747543 3.5873241e-41
12.493929 3.0739677 -2.9915497 3.5873241e-41
18.471676 -0.85797268 -2.9248214 3.5873241e-41
-4.1165848 2.2781703 0.4537738 3.5873241e-41
16.278698 2.1441934 2.0986812 3.5873241e-41
13.709141 2.8836031 1.255991 3.5873241e-41
12.530782 3.2373273 -2.4522917 3.5873241e-41
23.535229 -9.3718185 -2.0967011 3.5873241e-41
17.138327 -0.29924142 2.7990317 3.5873241e-41
22.86895 -4.3192649 -1.155056 3.5873241e-41
11.112213 2.9279137 4.3599029 3.5873241e-41
4.7098598 4.7454185 -1.3643799 3.5873241e-41
17.743258 -1.1514419 -3.889905 3.5873241e-41
24.53628 -17.55818 0.036641415 3.5873241e-41
9.0390549 4.4997649 0.050525375 3.5873241e-41
22.874781 -10.170784 -0.92584753 3.5873241e-41
18.557968 -2.3655505 0.45461059 3.5873241e-41
16.483664 1.4708397 -1.8390888 3.5873241e-41
21.218874 -9.6693039 -2.5491462 3.5873241e-41
21.665466 -6.6521602 -1.7256782 3.5873241e-41
16.6366 0.52097648 -3.2086427 3.5873241e-41
20.327404 -1.2962338 2.9958301 3.5873241e-41
5.1880708 5.0114155 1.4643811 3.5873241e-41
7.42904 4.6074667 -3.1315341 3.5873241e-41
13.708927 2.8644826 -2.9216974 3.5873241e-41
11.999748 3.3856027 0.89791894 3.5873241e-41
2.4050989 4.5753741 1.1678344 3.5873241e-41
8.0942039 4.4801512 2.5978999 3.5873241e-41
21.448038 -11.943776 1.2829261 3.5873241e-41
-5.6100965 1.3814 0.17428483 3.5873241e-41
7.3108058 4.5299392 -3.4159989 3.5873241e-41
12.929112 2.7891288 2.704272 3.5873241e-41
-1.3201915 3.432914 2.3005469 3.5873241e-41
21.3062 -7.0752244 -0.62302786 3.5873241e-41
17.732464 -1.7101113 -1.8608893 3.5873241e-41
6.1456704 5.2464747 -1.2203604 3.5873241e-41
3.5874002 4.7538552 1.2344878 3.5873241e-41
-6.1043816 1.2155898 -3.2561111 3.5873241e-41
12.98357 2.810492 0.68344563 3.5873241e-41
12.465661 3.338393 -1.188849 3.5873241e-41
15.952404 1.4042493 3.6852148 3.5873241e-41
13.044372 2.9312778 1.9607542 3.5873241e-41
12.113117 3.2226679 0.2215593 3.5873241e-41
4.1426997 5.2050629 -1.8942567 3.5873241e-41
21.196247 -3.6503234 0.58690339 3.5873241e-41
8.941865 4.4736347 1.8639649 3.5873241e-41
-2.8505139 2.8544919 2.0683124 3.5873241e-41
14.082991 1.5865742 -1.6838475 3.5873241e-41
11.474834 3.8485305 2.5377312 3.5873241e-41
17.884123 0.00034735366 2.5892935 3.5873241e-41
21.702988 -12.300315 0.45596606 3.5873241e-41
-6.04565 0.9438535 -2.0298951 3.5873241e-41
12.961184 2.6457853 1.2342863 3.5873241e-41
23.09903 -8.8088074 -0.75247073 3.5873241e-41
7.806098 4.44205 0.092672169 3.5873241e-41
15.519316 1.2512947 0.31370786 3.5873241e-41
-4.6121063 1.5998394 0.89518756 3.5873241e-41
22.557627 -17.927935 0.61228353 3.5873241e-41
20.669506 -6.4321752 0.97374994 3.5873241e-41
11.50845 3.5050533 2.7779109 3.5873241e-41
-5.5494986 1.3575923 0.95692259 3.5873241e-41
22.82803 -10.373515 -1.3289461 3.5873241e-41
13.316407 2.5005848 3.543962 3.5873241e-41
3.3345175 4.7880015 2.8540604 3.5873241e-41
23.977898 -8.593257 -0.16380014 3.5873241e-41
-4.1358738 2.3669572 -1.8358879 3.5873241e-41
0.23382939 4.1855407 -2.9960504 3.5873241e-41
13.189157 3.1967037 3.2809892 3.5873241e-41
-1.8663179 3.6972578 1.198162 3.5873241e-41
12.879152 2.8357868 -3.8757892 3.5873241e-41
-1.4335061 3.5959828 0.50269008 3.5873241e-41
17.334417 -1.2193292 3.6798058 3.5873241e-41
17.352715 -0.70126122 -1.3728431 3.5873241e-41
16.759815 0.95128417 0.40988666 3.5873241e-41
20.572474 -4.947917 0.49463862 3.5873241e-41
-6.0858545 0.99963433 -0.76764834 3.5873241e-41
16.864763 -0.13783485 -3.4044483 3.5873241e-41
20.215096 -4.416223 -2.3941052 3.5873241e-41
-3.0382869 2.6410456 -0.77307123 3.5873241e-41
22.699512 -16.689594 -0.75440234 3.5873241e-41
-0.99912518 3.4775968 -3.3322942 3.5873241e-41
14.001462 2.0744185 0.23015226 3.5873241e-41
1.7043359 4.4258208 -2.3512952 3.5873241e-41
17.460594 0.0096965423 2.190321 3.5873241e-41
19.474876 -4.0216761 2.79087 3.5873241e-41
24.268194 -13.180023 1.7684078 3.5873241e-41
20.957373 -4.4178262 2.1440754 3.5873241e-41
7.8027058 4.4369926 3.609834 3.5873241e-41
19.877131 -3.1395388 -1.9276478 3.5873241e-41
18.70499 -0.26874042 -3.1524131 3.5873241e-41
15.592556 0.35290676 2.477422 3.5873241e-41
18.730656 -4.8669314 -2.0310695 3.5873241e-41
23.035923 -11.689744 0.74960619 3.5873241e-41
18.605001 -1.3375961 1.8175907 3.5873241e-41
7.0276394 4.9413848 -3.5266335 3.5873241e-41
21.524492 -4.0274534 3.0321183 3.5873241e-41
-4.8844252 1.8916208 0.66039795 3.5873241e-41
8.1531639 4.7616711 2.2972951 3.5873241e-41
7.8408365 4.6972823 -2.9422104 3.5873241e-41
-6.4519925 0.66936123 2.0032918 3.5873241e-41
23.412621 -16.065697 1.0639206 3.5873241e-41
8.7714643 4.2226319 -2.3763862 3.5873241e-41
23.219439 -11.619416 1.7055657 3.5873241e-41
6.3650427 5.4988737 -0.088015653 3.5873241e-41
-3.8929811 2.3960016 3.3731422 3.5873241e-41
-1.3964223 3.7574041 -0.22052529 3.5873241e-41
11.213057 3.8613966 -0.37453243 3.5873241e-41
15.134336 0.046840671 2.2817883 3.5873241e-41
12.859649 2.5587158 2.7521172 3.5873241e-41
4.0045967 4.8215795 -1.8069735 3.5873241e-41
20.068508 -1.3202578 3.0817127 3.5873241e-41
-2.3687572 3.1936209 -3.5966723 3.5873241e-41
-6.1245303 0.8831749 -3.2808375 3.5873241e-41
17.25238 0.3374483 -0.94701725 3.5873241e-41
17.467745 0.49798864 1.6935805 3.5873241e-41
22.070185 -7.3980217 -1.6392996 3.5873241e-41
-1.4088184 3.3985274 1.1305772 3.5873241e-41
10.820246 4.0787115 0.85564274 3.5873241e-41
-5.0334439 1.7087405 0.13160445 3.5873241e-41
21.888947 -5.4828658 -0.55080742 3.5873241e-41
6.0309348 5.0058632 -1.6484051 3.5873241e-41
4.1133556 4.9043074 0.1451325 3.5873241e-41
11.590252 3.8188872 3.5833569 3.5873241e-41
21.328764 -10.596693 1.7197553 3.5873241e-41
3.9883666 4.6452489 -1.1329134 3.5873241e-41
22.950802 -8.1758137 -0.2554487 3.5873241e-41
11.567072 3.7238586 -3.024621 3.5873241e-41
0.59052384 4.4090886 -3.3793564 3.5873241e-41
8.4334679 4.4804468 2.8980827 3.5873241e-41
11.469589 3.7090402 -0.83381253 3.5873241e-41
7.3223228 4.8358355 2.9036529 3.5873241e-41
0.67623782 4.4805317 -1.8880923 3.5873241e-41
2.14762 4.3810921 3.2901669 3.5873241e-41
11.308627 3.7178972 3.1810145 3.5873241e-41
2.0394194 4.5943127 -2.7916741 3.5873241e-41
14.461164 2.4227793 -4.1882238 3.5873241e-41
16.431992 0.73169822 3.5089982 3.5873241e-41
24.668934 -14.294472 -1.7264358 3.5873241e-41
-0.47677234 3.8106751 -1.7973211 3.5873241e-41
20.924711 -5.3506913 2.8339248 3.5873241e-41
1.6955405 4.5912023 1.0836878 3.5873241e-41
-2.5605619 3.4019823 0.94393611 3.5873241e-41
15.648442 1.5656645 2.612627 3.5873241e-41
18.415846 -1.4347488 -1.9261339 3.5873241e-41
-4.8970499 1.6091247 1.1529973 3.5873241e-41
6.028945 4.7974491 -2.6385784 3.5873241e-41
4.7373734 4.6094418 2.2841547 3.5873241e-41
2.7968664 4.9424186 1.1104907 3.5873241e-41
15.466092 2.529171 -3.1905026 3.5873241e-41
5.496171 4.8476968 0.69517219 3.5873241e-41
6.0646029 5.1021256 -1.9744856 3.5873241e-41
22.10066 -6.9937615 -1.0517833 3.5873241e-41
-0.083660848 3.9894886 -2.8704679 3.5873241e-41
21.756098 -6.4876432 2.3500924 3.5873241e-41
19.777546 -5.7205429 -1.7881736 3.5873241e-41
4.9385018 5.2901263 -3.0822086 3.5873241e-41
-1.3581427 3.675225 0.91241467 3.5873241e-41
22.930338 -8.9337664 2.0063767 3.5873241e-41
18.603693 -0.63373524 2.5591505 3.5873241e-41
22.6777 -14.597225 -0.06508521 3.5873241e-41
0.23420645 4.2905703 -3.2652595 3.5873241e-41
20.274128 -3.3018508 -3.3887548 3.5873241e-41
21.96113 -8.9064817 -1.847236 3.5873241e-41
