ply
format ascii 1.0
comment PCL generated
element vertex 1167
property float x
property float y
property float z
property uchar red
property uchar green
property uchar blue
element camera 0
property float view_px
property float view_py
property float view_pz
property float x_axisx
property float x_axisy
property float x_axisz
property float y_axisx
property float y_axisy
property float y_axisz
property float z_axisx
property float z_axisy
property float z_axisz
property float focal
property float scalex
property float scaley
property float centerx
property float centery
property int viewportx
property int viewporty
property float k1
property float k2
end_header
-6.6844811 -8.535553 0.71436512 100 0 0
-7.7315273 -16.437035 1.4493325 100 0 0
-7.2607055 -9.6402979 -0.73015213 100 0 0
-10.397799 -16.495441 -1.4886875 100 0 0
-11.412797 -19.376846 -0.23484647 100 0 0
-7.2908258 -10.384012 -1.2332555 100 0 0
-10.269786 -16.471853 -1.17336 100 0 0
-8.6352339 -4.0665231 -1.9901357 100 0 0
-10.315988 -10.090805 -1.524618 100 0 0
-8.861908 -11.037754 1.7328057 100 0 0
-10.500929 -8.9464684 1.691609 100 0 0
-6.974597 -12.475254 -0.42751762 100 0 0
-10.67407 -17.627523 0.034086723 100 0 0
-8.7184258 -16.505455 1.8430079 100 0 0
-7.6192846 -17.526344 -1.7491605 100 0 0
-7.6187172 -17.861374 -1.531908 100 0 0
-9.6791601 -7.1837821 1.4376836 100 0 0
-11.754167 -17.24382 -1.1539793 100 0 0
-10.582204 -3.8030326 -1.656099 100 0 0
-10.58306 -6.3631105 -0.1960592 100 0 0
-7.4211054 -3.4950995 1.0451776 100 0 0
-9.6518049 -12.591458 -1.6821017 100 0 0
-8.9511404 -5.3055887 1.8150395 100 0 0
-8.2906055 -6.1639071 1.9677231 100 0 0
-8.7353725 -16.02187 1.7546908 100 0 0
-9.4189177 -9.5303993 1.8043224 100 0 0
-9.4311371 -16.908911 1.2409368 100 0 0
-9.7601156 -4.1113439 -1.9774199 100 0 0
-7.7515955 -12.897279 0.91067988 100 0 0
-7.556776 -7.7550025 1.4953769 100 0 0
-9.5206394 -9.3836098 -1.6618576 100 0 0
-9.2309513 -13.613732 -1.9543257 100 0 0
-10.475085 -7.6281581 0.75962579 100 0 0
-8.9904528 -18.701937 -1.9229356 100 0 0
-9.4060364 -4.8980665 1.8095307 100 0 0
-10.442616 -11.14027 -0.67635572 100 0 0
-11.036773 -7.5746074 0.14605309 100 0 0
-9.7443237 -17.464439 -1.5764779 100 0 0
-8.5913563 -14.134281 -1.6218871 100 0 0
-11.075372 -11.045358 -0.49985453 100 0 0
-7.4304461 -9.0137529 1.4565307 100 0 0
-7.2461276 -19.179548 -0.56873989 100 0 0
-7.4059858 -12.363612 -1.0140781 100 0 0
-11.324882 -6.9482245 -0.016308133 100 0 0
-6.8448477 -12.871824 -0.55835474 100 0 0
-7.2740221 -8.3661299 1.1715165 100 0 0
-8.0870714 -15.360147 -1.7134959 100 0 0
-9.9850607 -10.269814 0.88834149 100 0 0
-10.786727 -17.903437 -0.50151139 100 0 0
-8.495142 -11.818573 -1.5537279 100 0 0
-8.1689215 -5.2176237 -1.6442338 100 0 0
-10.014025 -6.6093979 -1.4770164 100 0 0
-6.713593 -16.530487 -0.81271964 100 0 0
-8.0059261 -13.176538 -1.1030089 100 0 0
-8.3396807 -18.265514 -1.7589928 100 0 0
-8.3368654 -4.4087524 -1.774797 100 0 0
-8.5897655 -5.6646633 1.9019481 100 0 0
-10.250779 -6.381074 1.416205 100 0 0
-7.3586259 -3.0724978 0.075680748 100 0 0
-8.4820089 -6.9877014 1.7835187 100 0 0
-7.5914268 -6.7393169 1.3950382 100 0 0
-10.863873 -4.9295759 0.18678115 100 0 0
-7.0365834 -17.485899 -0.26986983 100 0 0
-7.0081978 -15.252247 0.44007531 100 0 0
-10.530631 -7.8136635 0.93012267 100 0 0
-10.41817 -3.8616831 1.3557866 100 0 0
-10.947353 -7.8198533 0.35274759 100 0 0
-8.0411024 -12.247905 1.7893397 100 0 0
-7.5603495 -12.972832 1.7062281 100 0 0
-8.9050703 -5.0745797 1.9787987 100 0 0
-6.65168 -11.934209 -1.0581884 100 0 0
-10.415384 -18.62928 1.755646 100 0 0
-11.001222 -15.946565 0.3173255 100 0 0
-9.0925293 -12.498738 1.9593314 100 0 0
-7.8539362 -15.898156 1.116673 100 0 0
-7.3359432 -7.1265302 0.76286805 100 0 0
-8.0128145 -8.1877022 1.646212 100 0 0
-9.4409761 -13.873338 1.8782495 100 0 0
-8.2739649 -5.3270788 -1.7943747 100 0 0
-8.4490576 -6.1589141 1.6565511 100 0 0
-9.9934711 -17.226086 1.2980434 100 0 0
-8.0941648 -10.127861 1.7281909 100 0 0
-9.7583208 -7.5201488 1.9520499 100 0 0
-10.788848 -5.0630732 -0.59946007 100 0 0
-6.7770729 -14.913451 -0.96709162 100 0 0
-7.2055297 -15.780241 1.562829 100 0 0
-6.2591124 -10.624434 0.481361 100 0 0
-8.3194342 -17.491583 -1.4425256 100 0 0
-6.9074759 -6.9614244 -1.0545591 100 0 0
-8.3600445 -11.970402 1.913534 100 0 0
-7.525898 -5.0682492 -0.010976433 100 0 0
-10.882333 -17.864784 1.0705644 100 0 0
-7.8294134 -11.828426 -0.98805684 100 0 0
-11.789419 -17.137171 -0.13200712 100 0 0
-8.5085678 -6.77356 1.7737312 100 0 0
-11.165666 -18.4816 0.24509375 100 0 0
-9.6174421 -14.044171 -1.5549303 100 0 0
-9.0712194 -6.8496084 1.8416059 100 0 0
-10.375933 -4.4851594 1.4866768 100 0 0
-8.8731003 -14.572729 1.9932686 100 0 0
-7.0087123 -7.0485878 1.679993 100 0 0
-7.5135384 -14.546023 -0.4813506 100 0 0
-6.6186194 -14.106293 0.18240257 100 0 0
-8.7845354 -7.7681351 -1.9045831 100 0 0
-11.23699 -5.7710376 0.07219597 100 0 0
-8.7161484 -13.575141 1.9243309 100 0 0
-7.8416877 -13.605395 1.683303 100 0 0
-10.079455 -5.034575 1.1763645 100 0 0
-8.8656721 -10.271892 1.7751555 100 0 0
-10.9298 -17.360136 0.88755471 100 0 0
-8.2541771 -4.2097068 1.7895195 100 0 0
-6.7565684 -17.298746 -0.53909993 100 0 0
-7.7336116 -14.658573 -1.524022 100 0 0
-8.8023233 -6.5526657 1.7425352 100 0 0
-11.137568 -13.478673 -0.33992693 100 0 0
-8.428957 -6.113471 -1.9666033 100 0 0
-7.1265807 -6.3483119 -0.37659413 100 0 0
-8.8071404 -17.11174 1.9093237 100 0 0
-10.430131 -9.927556 0.20716 100 0 0
-10.503142 -9.1185093 -0.26802224 100 0 0
-11.211222 -5.4199924 -0.96095157 100 0 0
-9.167881 -17.535007 -1.8410507 100 0 0
-8.58249 -8.279458 1.6068909 100 0 0
-7.8872561 -4.8786545 1.1239989 100 0 0
-7.8842688 -5.2290606 -1.4716809 100 0 0
-9.5999413 -16.502317 -1.6010474 100 0 0
-7.1776347 -16.635389 0.52941048 100 0 0
-10.059425 -9.350625 -1.2238774 100 0 0
-10.299761 -13.50347 -1.3858161 100 0 0
-10.645129 -19.441912 1.3741502 100 0 0
-7.4214635 -5.7655187 0.67480874 100 0 0
-7.4035473 -16.612247 -1.1415319 100 0 0
-8.0076237 -18.617933 -1.7188885 100 0 0
-8.3258324 -15.686167 -1.6193326 100 0 0
-9.0969143 -4.7151651 -2.0108192 100 0 0
-6.8169751 -12.062095 -0.41135421 100 0 0
-7.3232369 -5.240376 -1.6570426 100 0 0
-11.398483 -9.485055 -0.76502925 100 0 0
-9.8926191 -5.8379221 0.35419869 100 0 0
-9.0862598 -17.053379 -1.8024786 100 0 0
-6.9275622 -8.5673981 -0.79003161 100 0 0
-7.2406378 -13.827767 1.3668104 100 0 0
-9.4091988 -8.7081089 1.6843892 100 0 0
-9.2814493 -4.6999769 1.5237396 100 0 0
-9.8204994 -7.4290981 0.95639724 100 0 0
-7.1804695 -15.641366 0.83525443 100 0 0
-7.1083741 -14.926423 0.5482344 100 0 0
-9.8901834 -18.202553 1.9324311 100 0 0
-6.949173 -4.1891103 0.97169799 100 0 0
-7.862927 -15.00961 -0.9711253 100 0 0
-8.7221451 -13.530847 1.8409972 100 0 0
-8.2947826 -18.423363 -1.7666116 100 0 0
-7.9915967 -4.7272048 1.4719248 100 0 0
-10.86005 -2.7931433 -0.57972813 100 0 0
-7.5202107 -12.104019 1.1164039 100 0 0
-10.244549 -7.276319 -1.4998574 100 0 0
-7.9151149 -13.702255 -1.8010764 100 0 0
-9.3790312 -8.2643242 -1.788699 100 0 0
-7.501286 -4.8194375 -0.78826845 100 0 0
-6.8583531 -7.1625156 1.0434539 100 0 0
-10.145191 -15.161826 -0.60005909 100 0 0
-10.083744 -18.092886 1.3209525 100 0 0
-10.54043 -13.847817 0.26564071 100 0 0
-9.644762 -11.176978 -1.6276937 100 0 0
-8.2099419 -4.8976164 -1.8922055 100 0 0
-10.826201 -10.161082 -0.69810295 100 0 0
-6.8221025 -15.780958 -0.75953966 100 0 0
-8.331646 -12.40081 -1.9287186 100 0 0
-10.587036 -13.001265 -1.2612979 100 0 0
-6.8007088 -6.7632656 -0.36805868 100 0 0
-9.9605923 -12.522581 -0.96733338 100 0 0
-9.0982065 -13.257157 0.86095172 100 0 0
-10.06214 -8.9606094 -1.0222945 100 0 0
-10.157076 -18.403088 1.0440462 100 0 0
-8.3671732 -10.423224 1.7839682 100 0 0
-9.6123457 -7.69415 1.4309996 100 0 0
-6.8602214 -9.3547935 0.17225663 100 0 0
-7.6740775 -7.9107752 1.7308201 100 0 0
-7.8047438 -16.285927 1.5331755 100 0 0
-7.2043095 -16.752993 0.060491551 100 0 0
-9.3854065 -16.894321 -1.6295003 100 0 0
-11.117744 -15.567972 0.913912 100 0 0
-7.4112649 -9.9182663 0.81422067 100 0 0
-8.4351177 -8.276823 -1.866188 100 0 0
-7.0859232 -14.746283 0.81658131 100 0 0
-7.4444304 -8.6378174 0.76677638 100 0 0
-10.078961 -5.2999802 1.3640304 100 0 0
-7.4104419 -15.480429 -1.3221724 100 0 0
-8.3283806 -12.037818 1.9024935 100 0 0
-10.382173 -4.9263611 1.079928 100 0 0
-10.750817 -8.9987659 0.29932657 100 0 0
-7.5180707 -3.1897607 -0.19329543 100 0 0
-9.2255993 -15.788059 1.7086958 100 0 0
-7.5702963 -12.073965 -0.84099549 100 0 0
-10.508278 -11.27099 -0.15210998 100 0 0
-7.8568492 -11.713087 -1.4477372 100 0 0
-11.002629 -5.7893486 -0.22722371 100 0 0
-11.304799 -8.7835979 0.53190964 100 0 0
-10.025351 -4.2271209 1.0964073 100 0 0
-6.9248013 -13.384866 -0.081156045 100 0 0
-8.5837936 -15.967633 1.5661938 100 0 0
-10.977272 -17.246328 -1.0470669 100 0 0
-10.463126 -13.433722 -1.3370872 100 0 0
-7.935091 -7.2918301 -1.620102 100 0 0
-8.668149 -9.1454258 -1.8974096 100 0 0
-10.044543 -14.284415 1.2970493 100 0 0
-8.6971664 -7.8264794 1.588918 100 0 0
-8.4440422 -13.169859 1.8928928 100 0 0
-10.570004 -17.478472 -1.252746 100 0 0
-11.071742 -5.9514751 -0.12378941 100 0 0
-7.8311386 -13.513342 -0.88047248 100 0 0
-11.112807 -13.430071 -0.032521266 100 0 0
-10.686722 -14.450232 -1.716985 100 0 0
-9.958353 -18.490458 -0.47620016 100 0 0
-8.1988163 -15.075125 -1.6978868 100 0 0
-9.9879112 -15.321592 -1.5265828 100 0 0
-7.5573506 -5.9786539 0.65997392 100 0 0
-10.085039 -10.101903 0.87381142 100 0 0
-10.379783 -8.2391434 -1.3036178 100 0 0
-8.3852158 -6.8662305 -1.2831572 100 0 0
-9.8686638 -11.758773 -0.98466927 100 0 0
-9.3610792 -12.061991 1.8589948 100 0 0
-7.4294167 -14.845189 -1.5364368 100 0 0
-9.0343037 -14.058486 -1.8223363 100 0 0
-9.3407488 -7.4102387 -1.7767496 100 0 0
-10.977018 -3.0280626 0.74749798 100 0 0
-9.5761728 -11.356726 -1.6978815 100 0 0
-6.9662685 -6.6092381 -0.066434994 100 0 0
-8.2820816 -12.321974 -1.8073602 100 0 0
-10.059962 -4.2473226 -0.88761646 100 0 0
-8.6227436 -17.281075 2.0058944 100 0 0
-7.0026402 -15.800599 -0.085911579 100 0 0
-10.185388 -13.735998 0.57011008 100 0 0
-8.3463631 -12.706927 1.7548095 100 0 0
-8.2590065 -3.3140118 1.7319765 100 0 0
-7.0198479 -13.90485 0.22553408 100 0 0
-7.6730599 -16.789156 1.4919437 100 0 0
-9.2502136 -9.2537327 -1.8725948 100 0 0
-6.7143106 -11.431904 -0.062442861 100 0 0
-9.9218779 -11.345249 -0.91671616 100 0 0
-7.5385628 -11.534814 -0.24116097 100 0 0
-7.2513919 -7.1478829 1.3454854 100 0 0
-9.9872446 -7.7883501 0.31041506 100 0 0
-8.520381 -10.277574 -1.9759775 100 0 0
-11.491207 -9.8730125 -0.11834564 100 0 0
-10.010002 -14.815947 -0.68458802 100 0 0
-10.521736 -15.042617 -0.69726175 100 0 0
-10.383619 -9.6921225 -0.97332603 100 0 0
-7.1697922 -9.4565563 0.65916306 100 0 0
-10.319689 -7.5865183 -0.85320079 100 0 0
-7.9464827 -5.598217 0.13330933 100 0 0
-7.6619987 -2.6933565 -0.44348568 100 0 0
-9.4210024 -5.3217325 -1.7396762 100 0 0
-6.6362443 -12.510044 0.42346796 100 0 0
-8.5672865 -3.0843396 -1.9280783 100 0 0
-10.680823 -16.741817 -0.19582427 100 0 0
-9.195775 -17.764149 -1.799698 100 0 0
-9.5008202 -11.39557 1.6892774 100 0 0
-7.6246815 -3.8294439 -0.18479212 100 0 0
-8.7945595 -15.184327 -1.7617888 100 0 0
-7.7235179 -14.789332 0.52975881 100 0 0
-8.6632566 -10.975318 1.742558 100 0 0
-8.9606886 -8.3554001 1.9314024 100 0 0
-10.314775 -5.1216702 0.09588737 100 0 0
-9.4110765 -8.9005537 1.7991168 100 0 0
-9.1835642 -8.299758 -2.0041249 100 0 0
-7.3932343 -17.786961 -0.41326791 100 0 0
-6.6901593 -14.599911 0.065514244 100 0 0
-10.320742 -2.7464919 -1.0958649 100 0 0
-8.6343498 -18.35918 -1.8463962 100 0 0
-7.434402 -18.42918 0.96703809 100 0 0
-11.057926 -16.092182 -0.26213866 100 0 0
-8.4137268 -13.415817 1.7608 100 0 0
-10.17241 -17.790707 -1.2978328 100 0 0
-11.435549 -13.598498 -0.10717829 100 0 0
-9.6137028 -5.20192 1.2347494 100 0 0
-8.1755209 -6.6546607 -1.612358 100 0 0
-10.341146 -12.730425 1.2888041 100 0 0
-9.953227 -18.048363 -1.4797275 100 0 0
-9.8497047 -3.7000926 -1.3917742 100 0 0
-7.3025947 -5.3452969 -0.2966513 100 0 0
-10.35376 -12.145513 -1.6911893 100 0 0
-9.1739073 -17.000425 -1.7076428 100 0 0
-8.7696333 -9.1871052 -1.7486671 100 0 0
-8.3344793 -8.7241297 -1.8418852 100 0 0
-9.6177549 -7.196413 -1.483103 100 0 0
-7.4718156 -12.706987 -1.7917292 100 0 0
-8.1104212 -3.9699168 0.67312789 100 0 0
-9.4513845 -5.7385831 -1.6144021 100 0 0
-10.147067 -8.3684654 -1.7541035 100 0 0
-8.7100029 -16.204033 -1.966867 100 0 0
-6.8770447 -18.433496 -0.10271262 100 0 0
-10.81796 -7.3936372 -0.43075156 100 0 0
-9.6733313 -6.9427719 -1.304036 100 0 0
-8.9563274 -7.62328 -1.8725492 100 0 0
-8.4619007 -14.047959 1.7109725 100 0 0
-9.6304913 -3.6674776 -1.7768397 100 0 0
-9.5721178 -19.315826 1.7752625 100 0 0
-7.3404355 -15.850551 -0.54308414 100 0 0
-8.4882631 -18.286604 1.9172114 100 0 0
-7.3542943 -4.5179524 -0.30110478 100 0 0
-8.2233534 -10.078496 1.9292938 100 0 0
-10.384635 -12.744221 0.020532861 100 0 0
-6.7589483 -20.210869 0.12278163 100 0 0
-10.313615 -16.464283 1.2464656 100 0 0
-7.7971306 -7.1371131 1.273294 100 0 0
-10.609388 -7.7167506 -1.0411062 100 0 0
-9.7690477 -17.895859 -1.6478363 100 0 0
-8.1188517 -15.83952 -2.067996 100 0 0
-11.271347 -10.699126 0.72185755 100 0 0
-10.339313 -9.2393761 1.1420686 100 0 0
-10.589954 -15.760856 -0.83888131 100 0 0
-9.7021341 -5.7753243 -1.5600364 100 0 0
-10.072659 -6.6885281 1.5005785 100 0 0
-10.664053 -6.6822004 1.1308925 100 0 0
-10.859001 -4.8926692 -0.66586375 100 0 0
-11.265462 -15.273897 -0.0098417783 100 0 0
-7.652976 -10.169387 0.5511896 100 0 0
-9.0783367 -11.781956 1.6568458 100 0 0
-7.9503903 -9.3192091 -1.7105808 100 0 0
-10.636408 -15.994867 1.3388472 100 0 0
-8.5008526 -10.260713 -1.9048703 100 0 0
-7.1082697 -14.068965 -0.18326117 100 0 0
-10.58677 -17.014002 -0.57196248 100 0 0
-7.2537589 -9.1328039 1.0222992 100 0 0
-10.564277 -9.0334883 1.3118591 100 0 0
-10.241693 -12.07049 -0.92626637 100 0 0
-10.257865 -7.3825941 0.78259993 100 0 0
-9.1998634 -10.632937 1.90142 100 0 0
-7.4766498 -11.925771 0.028098447 100 0 0
-7.3835168 -9.7550459 -0.97690272 100 0 0
-7.5488229 -13.815198 -0.42895955 100 0 0
-9.5789547 -4.0734992 1.3474473 100 0 0
-10.603701 -16.220774 -1.5642112 100 0 0
-7.2913265 -14.776679 -1.6316158 100 0 0
-8.71064 -7.7967186 1.9943886 100 0 0
-7.4359078 -6.1052585 0.14696784 100 0 0
-8.3496904 -8.5504885 -1.943498 100 0 0
-7.9787779 -15.965685 1.6325049 100 0 0
-7.637166 -6.7581806 -0.4853521 100 0 0
-10.242038 -4.8470516 -0.95389479 100 0 0
-11.562341 -12.083457 0.66417086 100 0 0
-7.1149611 -14.438279 1.0268068 100 0 0
-8.2017307 -5.6878877 1.8982887 100 0 0
-7.5910535 -8.1931028 1.6331309 100 0 0
-8.9825201 -11.400873 1.5865858 100 0 0
-9.4134893 -10.552816 2.0363951 100 0 0
-10.732649 -13.01215 -0.53651917 100 0 0
-7.3974528 -14.271049 1.3672198 100 0 0
-9.0332861 -5.2442107 1.8736136 100 0 0
-7.8203893 -4.7793651 -1.685196 100 0 0
-7.1227388 -8.8652792 1.0555532 100 0 0
-7.7937422 -12.62499 -1.2098014 100 0 0
-7.6401548 -14.837188 1.7367452 100 0 0
-10.993418 -17.011511 -0.34230524 100 0 0
-7.4526768 -15.334137 0.26768431 100 0 0
-6.6737404 -6.7842093 0.41394103 100 0 0
-7.8446198 -17.336346 1.7615117 100 0 0
-7.9123392 -14.37808 -1.5449612 100 0 0
-9.3604164 -17.274632 1.8297801 100 0 0
-11.492214 -9.385231 -0.91974294 100 0 0
-11.331608 -15.945688 -0.86271805 100 0 0
-8.1387177 -4.4450469 1.8676842 100 0 0
-7.1096911 -3.7635226 -0.52064091 100 0 0
-10.192728 -6.1967487 1.1978565 100 0 0
-10.137309 -12.566494 1.6293741 100 0 0
-6.769021 -9.8447676 0.59477758 100 0 0
-11.051105 -13.966551 -0.41469973 100 0 0
-10.709943 -6.6202302 -0.58859432 100 0 0
-8.7131329 -13.860768 1.8344004 100 0 0
-8.9528427 -10.752747 -1.8829074 100 0 0
-10.297711 -4.4877105 1.6584123 100 0 0
-9.6711397 -18.824293 -1.6426215 100 0 0
-8.496212 -16.057589 -1.8964262 100 0 0
-7.061985 -12.532642 -0.94360095 100 0 0
-8.5279989 -20.137165 1.6792368 100 0 0
-6.7532864 -15.11896 -0.70823216 100 0 0
-11.018871 -16.987894 0.49502248 100 0 0
-9.7593746 -3.7460721 1.7488695 100 0 0
-10.307213 -13.675363 -1.0443561 100 0 0
-11.705872 -8.7847795 -1.2549821 100 0 0
-8.6495485 -11.77621 1.7475306 100 0 0
-10.164495 -7.9208965 1.0373542 100 0 0
-7.6391006 -12.411358 1.5798783 100 0 0
-10.227482 -8.637764 -1.4411525 100 0 0
-10.418228 -13.29716 1.2272291 100 0 0
-10.710462 -7.0683393 0.99252909 100 0 0
-8.7502308 -12.331338 -1.9468672 100 0 0
-11.4553 -15.284035 -0.50111866 100 0 0
-9.5247383 -4.1636453 -1.6039973 100 0 0
-10.561626 -6.2056985 1.2664663 100 0 0
-8.5581551 -7.3162823 1.7289832 100 0 0
-7.7016997 -14.433333 -0.15818143 100 0 0
-9.7371531 -16.676556 -1.7780924 100 0 0
-9.2743845 -4.4854484 1.8650486 100 0 0
-9.6889782 -15.905678 1.7836545 100 0 0
-8.1454716 -9.3511772 -0.91723973 100 0 0
-9.2716179 -14.27121 1.879256 100 0 0
-7.2008085 -13.28663 -0.66239643 100 0 0
-10.827695 -16.539696 1.0752679 100 0 0
-6.7756662 -17.875549 -0.35160577 100 0 0
-10.512871 -15.379485 1.5902369 100 0 0
-8.0737362 -14.119164 -1.5776068 100 0 0
-8.2979622 -15.989784 1.7604668 100 0 0
-7.3551183 -5.8775063 1.1683284 100 0 0
-10.070302 -13.123941 -1.0228071 100 0 0
-8.3567677 -15.176023 -1.659593 100 0 0
-10.495577 -8.9255457 -1.5744237 100 0 0
-10.176074 -19.429502 -1.5095394 100 0 0
-6.9901967 -8.1273499 0.13799305 100 0 0
-10.240414 -15.866976 1.198431 100 0 0
-9.86726 -14.516361 1.4790591 100 0 0
-7.6811991 -12.575845 1.1743912 100 0 0
-6.6655812 -13.170024 0.55582845 100 0 0
-9.0962677 -4.1022553 1.6624541 100 0 0
-10.94954 -16.594023 -1.0038737 100 0 0
-9.8400984 -3.3865569 1.9778663 100 0 0
-9.9487963 -4.5853548 -1.5865383 100 0 0
-10.238522 -2.8877716 -1.5287452 100 0 0
-10.322593 -16.081116 -1.7106978 100 0 0
-10.577472 -12.247528 0.45987737 100 0 0
-9.9911528 -14.71761 1.3121636 100 0 0
-8.7547827 -5.7361121 -1.6768975 100 0 0
-10.722394 -8.8545427 0.67223978 100 0 0
-9.1942482 -16.580038 2.0472996 100 0 0
-10.710437 -9.5482178 0.59272838 100 0 0
-9.4528618 -11.613963 1.9059979 100 0 0
-10.530614 -4.8189263 -1.2740005 100 0 0
-7.9642558 -6.8773079 -1.5643413 100 0 0
-8.4743614 -9.6387577 -1.5945151 100 0 0
-6.8679457 -5.6021576 0.43746576 100 0 0
-11.206446 -9.9268398 1.2380595 100 0 0
-8.6218691 -6.8710098 1.8709271 100 0 0
-10.669102 -6.9614649 0.77710491 100 0 0
-7.9171929 -12.962926 1.1534898 100 0 0
-10.024845 -9.973341 1.2691085 100 0 0
-7.5793471 -14.857997 -1.6386079 100 0 0
-9.3850632 -6.7082181 1.6583365 100 0 0
-10.102866 -7.5630002 0.48937172 100 0 0
-7.2208524 -9.7041912 -1.3702072 100 0 0
-10.565894 -11.65627 -1.1968499 100 0 0
-6.8858657 -16.033127 0.43889871 100 0 0
-11.473132 -8.2484684 -0.16572237 100 0 0
-7.445756 -3.3984494 1.6798661 100 0 0
-7.075459 -6.7140231 0.46267754 100 0 0
-10.662481 -11.813341 0.58652103 100 0 0
-7.0592833 -4.3781376 -0.22135976 100 0 0
-7.6825876 -8.5829258 -1.5560492 100 0 0
-8.0823488 -14.318712 -1.8436481 100 0 0
-9.6809473 -17.637194 1.6995624 100 0 0
-8.1161671 -17.418312 1.8258886 100 0 0
-7.8902278 -8.4840956 -1.2964928 100 0 0
-8.7919874 -3.8603513 -2.0147593 100 0 0
-10.882973 -5.9465313 0.088694528 100 0 0
-10.984955 -10.915266 -0.40080714 100 0 0
-8.1075897 -10.341378 1.6977282 100 0 0
-7.9389563 -9.8511839 -1.8768389 100 0 0
-8.8358088 -15.996712 -2.1037748 100 0 0
-10.168321 -16.581303 -1.2497904 100 0 0
-8.7503433 -9.567235 2.0056829 100 0 0
-10.599012 -12.336219 0.77089924 100 0 0
-9.4353113 -13.074617 1.920864 100 0 0
-7.253365 -4.8920975 1.3532879 100 0 0
-9.0472851 -17.18062 1.8398154 100 0 0
-7.1719451 -15.155559 0.81312627 100 0 0
-10.255659 -14.390184 -1.593609 100 0 0
-10.749953 -15.748317 0.80186146 100 0 0
-8.2914886 -18.610878 1.9545099 100 0 0
-9.0550642 -12.319654 1.6272594 100 0 0
-9.2066078 -3.6539931 1.7850477 100 0 0
-7.3925962 -13.122212 -0.93789375 100 0 0
-7.5765634 -14.862474 -1.4125773 100 0 0
-8.3711271 -8.0111551 1.4521978 100 0 0
-9.5402517 -6.4968705 1.8761415 100 0 0
-11.333117 -13.115269 0.47354797 100 0 0
-9.9874907 -3.8535459 -1.7505345 100 0 0
-10.754962 -9.1441631 0.9022454 100 0 0
-9.7853489 -16.668455 -1.6604176 100 0 0
-8.9830961 -17.701164 1.9570218 100 0 0
-7.0134168 -6.5304575 -0.4864125 100 0 0
-7.2401538 -17.884962 1.0937599 100 0 0
-7.506495 -10.884106 -1.5568758 100 0 0
-7.3966765 -15.890591 1.5984184 100 0 0
-9.464612 -10.031898 -1.816249 100 0 0
-7.6620483 -8.3641949 0.84071243 100 0 0
-9.2944593 -15.214949 -1.6279248 100 0 0
-7.198348 -6.0973825 -1.4397547 100 0 0
-9.4611292 -9.9807692 1.6881146 100 0 0
-8.1101685 -6.1883969 -1.8704407 100 0 0
-7.3325286 -16.335802 -1.1633577 100 0 0
-7.6654954 -17.677536 -1.4536067 100 0 0
-7.2961907 -8.8119192 1.4131899 100 0 0
-7.5929971 -8.634778 -0.16410528 100 0 0
-10.900844 -12.807266 -0.44843635 100 0 0
-7.7370753 -12.237847 0.59916425 100 0 0
-10.233771 -7.7327418 -1.0908751 100 0 0
-7.705915 -12.208793 -1.4604305 100 0 0
-8.120369 -12.286071 1.8949547 100 0 0
-6.7964725 -10.883417 -0.83004826 100 0 0
-8.9945517 -4.2106886 1.9229579 100 0 0
-10.77812 -5.4584932 -0.83118773 100 0 0
-9.6373711 -8.0394087 -1.7909752 100 0 0
-11.290469 -17.919756 -0.71281296 100 0 0
-9.317709 -7.1172748 1.9277438 100 0 0
-8.2485113 -9.0810041 1.1606013 100 0 0
-11.031363 -16.008255 -0.82701558 100 0 0
-9.9231243 -7.960433 1.7069777 100 0 0
-8.3722887 -11.884748 -1.6551389 100 0 0
-9.6052961 -5.4909859 -1.5235072 100 0 0
-7.9963021 -16.540033 1.7023779 100 0 0
-9.1885815 -3.0069547 1.8035041 100 0 0
-8.0397921 -18.066652 0.59663635 100 0 0
-11.143878 -16.632029 1.2373106 100 0 0
-11.577583 -12.402323 0.99206448 100 0 0
-7.6944475 -15.240098 -1.3937192 100 0 0
-7.9872193 -9.4184341 -1.5015377 100 0 0
-7.3315969 -10.356474 0.85294044 100 0 0
-9.8915625 -5.2029672 0.96959925 100 0 0
-8.0568781 -10.266271 1.7878156 100 0 0
-8.4218168 -17.791658 1.6947764 100 0 0
-9.6200085 -16.600828 2.0154581 100 0 0
-9.3697643 -2.9053347 1.8164346 100 0 0
-9.4384232 -9.3739319 1.740819 100 0 0
-10.339991 -18.348484 -0.095854387 100 0 0
-8.7551718 -14.92373 1.8754992 100 0 0
-10.442793 -18.092636 -1.8154631 100 0 0
-11.224607 -13.316365 0.13665339 100 0 0
-9.8280897 -17.386326 1.5604686 100 0 0
-10.19695 -6.0392528 -0.61841935 100 0 0
-7.6730571 -4.5075417 0.47698602 100 0 0
-7.1785522 -15.150258 1.1110327 100 0 0
-8.8584929 -9.1892128 1.8925991 100 0 0
-9.4142275 -8.8174181 1.8585843 100 0 0
-10.217438 -7.0917101 -1.5699735 100 0 0
-9.0141001 -12.829788 -1.7322397 100 0 0
-9.9439449 -14.113639 0.4313609 100 0 0
-11.133274 -13.740844 -0.74603552 100 0 0
-10.210901 -10.098563 1.6768253 100 0 0
-11.028202 -5.9868212 -0.32023984 100 0 0
-7.9047256 -17.025223 -1.2877904 100 0 0
-11.047015 -6.4542503 -0.33375216 100 0 0
-9.1399794 -17.729889 -1.9403036 100 0 0
-10.439039 -8.3310051 -1.3216544 100 0 0
-10.647972 -4.235229 0.22414878 100 0 0
-8.5232344 -8.3418198 -1.8035699 100 0 0
-9.5278397 -16.406481 1.4703553 100 0 0
-8.2074966 -10.021132 0.8143121 100 0 0
-7.2702489 -3.7832241 -0.0045784367 100 0 0
-11.219977 -13.440493 -0.51976848 100 0 0
-7.2354956 -13.233944 -1.0454704 100 0 0
-8.2360706 -3.2671602 1.9147784 100 0 0
-8.0671129 -14.311841 -1.7758089 100 0 0
-7.5258274 -13.053139 -1.7709861 100 0 0
-8.8309135 -8.0355291 -1.4074965 100 0 0
-10.22791 -11.619588 -1.6451156 100 0 0
-10.391839 -3.5738723 1.3188933 100 0 0
-11.516231 -10.551932 1.3950034 100 0 0
-8.6551991 -11.84014 1.8030654 100 0 0
-8.2801466 -4.4304771 1.7084156 100 0 0
-8.1073742 -10.519479 -1.3747144 100 0 0
-10.69744 -7.5883141 1.6659099 100 0 0
-10.954778 -6.5820293 -1.6097115 100 0 0
-7.0041065 -15.928706 0.98990428 100 0 0
-6.9567904 -9.0766077 -1.0011567 100 0 0
-8.7373781 -10.198031 -1.8702821 100 0 0
-9.9449463 -6.7119331 1.4808488 100 0 0
-7.758255 -15.316675 1.4483503 100 0 0
-10.2662 -15.045599 -1.863748 100 0 0
-9.7206392 -3.3318148 1.9836468 100 0 0
-11.148573 -8.3805513 0.019824686 100 0 0
-8.0657225 -7.7976017 1.4860748 100 0 0
-7.6594052 -10.94488 -1.605713 100 0 0
-8.7235651 -9.8672953 1.787273 100 0 0
-6.9342542 -5.9098916 -0.16191782 100 0 0
-9.4766502 -17.299168 -1.4469661 100 0 0
-6.676774 -3.9916115 -1.1188475 100 0 0
-7.6808176 -4.5879211 1.7607311 100 0 0
-10.372964 -14.494879 -0.17784888 100 0 0
-7.0477052 -3.5689876 -0.71956182 100 0 0
-7.0213156 -16.894995 -0.16030952 100 0 0
-10.880374 -18.92687 -0.66304153 100 0 0
-7.5952597 -8.4515343 -1.288821 100 0 0
-8.2445002 -8.6263266 -1.7810708 100 0 0
-8.3876686 -15.8748 1.596354 100 0 0
-10.995032 -17.137936 -0.3484571 100 0 0
-10.486872 -11.598333 -1.5900829 100 0 0
-6.9913483 -8.3428583 -1.2477089 100 0 0
-10.06769 -18.749264 -1.4678866 100 0 0
-7.0934687 -18.156366 0.72348326 100 0 0
-9.663002 -13.194417 1.4224017 100 0 0
-10.067249 -14.946338 1.4113673 100 0 0
-10.338263 -11.961762 0.76947302 100 0 0
-9.090271 -14.553555 1.7159977 100 0 0
-8.6577587 -6.0113463 -1.8681738 100 0 0
-7.0638003 -3.9667873 -0.5854426 100 0 0
-9.5118494 -6.0294385 -1.4718301 100 0 0
-6.6427345 -11.29758 1.4050748 100 0 0
-9.4973116 -14.858345 -1.2581615 100 0 0
-8.1082516 -15.345654 -1.8817049 100 0 0
-7.7386212 -6.3403091 -1.4327226 100 0 0
-10.736035 -4.9058599 0.90738159 100 0 0
-10.487445 -12.616306 -1.1719868 100 0 0
-8.8851595 -15.636944 1.8706653 100 0 0
-9.4473057 -4.181006 0.31990966 100 0 0
-10.714177 -3.9305875 1.4118052 100 0 0
-10.585521 -12.312596 0.073066004 100 0 0
-9.3476744 -9.9461069 -1.7753869 100 0 0
-9.9839945 -12.20608 1.2382812 100 0 0
-8.8053589 -10.133995 -1.8601983 100 0 0
-7.4119306 -14.219841 -0.21912466 100 0 0
-7.2768865 -15.773163 -0.98788142 100 0 0
-7.8416657 -17.191767 1.5163394 100 0 0
-10.018453 -14.022798 -0.6172896 100 0 0
-7.2304816 -11.968641 -0.21806327 100 0 0
-11.309195 -15.783031 -0.84088296 100 0 0
-7.9244761 -4.9313097 -1.4051065 100 0 0
-10.704958 -6.2026019 0.62233168 100 0 0
-8.6303072 -4.8557186 1.8564968 100 0 0
-7.0208731 -6.3896809 -1.0647234 100 0 0
-11.548327 -5.4994693 0.1641767 100 0 0
-9.4722433 -11.264413 1.7466552 100 0 0
-9.2504292 -12.621728 -1.8570127 100 0 0
-9.2237167 -8.7018137 1.8854618 100 0 0
-7.6104193 -14.231039 0.074310929 100 0 0
-8.7325993 -13.258883 -1.7895304 100 0 0
-10.152024 -9.7134771 1.5261048 100 0 0
-10.147494 -8.0048409 -0.68580413 100 0 0
-10.558966 -16.921371 0.26639637 100 0 0
-8.6688557 -3.3629749 -1.7826657 100 0 0
-7.6599889 -7.5614367 0.061789062 100 0 0
-8.5906706 -14.627062 1.8107293 100 0 0
-8.3065481 -5.0103531 -1.8430967 100 0 0
-9.8936472 -4.3205075 1.6500717 100 0 0
-7.0638862 -4.2436728 -0.40831596 100 0 0
-9.2840414 -11.587464 1.8837759 100 0 0
-11.118617 -4.0016136 -0.3733803 100 0 0
-8.84653 -5.0140347 1.8779964 100 0 0
-8.5362844 -3.7184155 1.9465816 100 0 0
-7.5925059 -15.378116 -1.4342065 100 0 0
-7.7197943 -10.262438 -0.90401202 100 0 0
-10.113725 -14.322528 1.3840861 100 0 0
-7.4316769 -15.205827 1.5288727 100 0 0
-10.04145 -17.378088 1.1461186 100 0 0
-9.6907511 -3.2716911 -1.5336494 100 0 0
-6.5625072 -9.8482313 -0.7588771 100 0 0
-8.1064692 -9.9071274 -1.901407 100 0 0
-7.0476732 -18.666872 0.790003 100 0 0
-8.0431757 -3.0889044 1.8379884 100 0 0
-10.650392 -8.6172514 0.18202357 100 0 0
-7.6173601 -12.207981 -1.7291051 100 0 0
-9.5928736 -16.273052 -1.5132542 100 0 0
-9.8691378 -12.294302 1.4179659 100 0 0
-10.071147 -4.0444913 -1.4694775 100 0 0
-6.5301576 -11.643194 -1.5585471 100 0 0
-7.2498116 -17.214294 -1.5055557 100 0 0
-10.204357 -15.22347 0.1173136 100 0 0
-6.9938698 -14.379988 0.46827555 100 0 0
-7.5773773 -5.7768469 1.2071241 100 0 0
-7.7562284 -12.178386 1.2758205 100 0 0
-8.0665045 -4.5237532 -1.8984143 100 0 0
-7.1417608 -8.3762684 1.4522464 100 0 0
-9.6997604 -5.1876845 0.74606663 100 0 0
-10.471122 -12.542537 0.84459966 100 0 0
-9.1333313 -5.6251063 0.88911092 100 0 0
-10.06108 -7.3983393 1.164946 100 0 0
-11.031115 -4.213943 -1.1995885 100 0 0
-10.746219 -7.1852627 -1.0472275 100 0 0
-9.9922428 -4.4441833 -1.0599575 100 0 0
-7.8410654 -17.594379 -1.1163445 100 0 0
-10.402876 -15.894261 1.6333188 100 0 0
-8.279048 -13.957618 -1.1286453 100 0 0
-7.2307706 -8.2879238 -1.3501644 100 0 0
-10.31718 -5.7215834 0.28107712 100 0 0
-7.3204203 -7.2246423 0.68025655 100 0 0
-9.2440748 -3.5792809 1.6686183 100 0 0
-7.316699 -13.446378 1.3294766 100 0 0
-9.5231714 -15.805128 1.5894773 100 0 0
-7.4168992 -14.233525 -0.20436108 100 0 0
-9.6687069 -12.860909 1.8810629 100 0 0
-9.5581074 -4.3427391 -1.609376 100 0 0
-6.9761057 -17.40724 0.057843596 100 0 0
-7.5005288 -12.88319 -0.86002338 100 0 0
-9.6768656 -17.991781 -1.7976786 100 0 0
-7.3364906 -17.172354 1.6396042 100 0 0
-6.6705694 -5.4599876 -0.30528724 100 0 0
-6.8418088 -8.3201418 0.28270742 100 0 0
-8.1405811 -17.873453 -1.743245 100 0 0
-9.636013 -13.17355 1.2706062 100 0 0
-8.1142073 -17.99439 -1.7511675 100 0 0
-9.6733456 -8.4401178 1.8601058 100 0 0
-11.117695 -12.004998 0.46284196 100 0 0
-10.122595 -12.478139 -1.5332524 100 0 0
-7.8951988 -8.702158 1.5976462 100 0 0
-11.517404 -12.650275 -0.66974211 100 0 0
-7.3953428 -10.251527 1.5348262 100 0 0
-9.8987904 -16.078623 1.4928163 100 0 0
-8.093996 -7.0689683 -1.9178513 100 0 0
-7.3111968 -12.891873 0.60814321 100 0 0
-9.2487497 -13.719857 -1.8256253 100 0 0
-9.618803 -16.384661 -1.5533798 100 0 0
-9.768446 -15.69769 1.7870412 100 0 0
-9.9210835 -16.338825 0.81555957 100 0 0
-7.2831969 -16.541515 0.10159743 100 0 0
-10.168507 -6.3132358 0.26414719 100 0 0
-7.0596051 -9.6385756 -0.9756099 100 0 0
-10.469447 -9.0590382 -1.2649473 100 0 0
-8.7886982 -6.1569023 -1.7698054 100 0 0
-10.563035 -3.2701344 -0.89466047 100 0 0
-7.8525929 -18.897532 1.6576387 100 0 0
-8.9119005 -13.005365 -1.8341674 100 0 0
-6.7544346 -3.7786012 0.048652805 100 0 0
-7.3678923 -17.885437 -0.79158044 100 0 0
-10.767585 -16.893127 0.72615498 100 0 0
-8.3256187 -11.961036 1.8245806 100 0 0
-10.459493 -14.769767 -1.6821946 100 0 0
-11.045577 -12.525997 -0.75742257 100 0 0
-7.0602255 -9.3707132 -0.3095147 100 0 0
-8.7833967 -11.97521 -1.7132645 100 0 0
-7.9429216 -5.4417453 1.9401898 100 0 0
-7.8275924 -11.338935 1.8820643 100 0 0
-6.1241293 -6.9161348 0.86973941 100 0 0
-8.1262293 -8.1410456 1.591521 100 0 0
-7.6099 -13.825747 1.436197 100 0 0
-8.5514631 -3.0458834 1.6387509 100 0 0
-7.4909186 -13.438603 -1.2620282 100 0 0
-10.191487 -12.381783 1.5511889 100 0 0
-7.5888186 -17.092985 -0.49830514 100 0 0
-10.892767 -14.169204 -0.0080717355 100 0 0
-6.9737787 -10.145525 0.67378879 100 0 0
-10.00035 -7.6566958 1.7956223 100 0 0
-6.9775128 -5.2917085 -0.56956965 100 0 0
-9.8708687 -7.2187324 1.6292356 100 0 0
-9.8755016 -9.6004066 -1.8298206 100 0 0
-7.9468403 -17.958183 1.9100481 100 0 0
-10.369518 -13.943951 1.293824 100 0 0
-6.4537621 -3.9678659 -0.091255806 100 0 0
-9.5771847 -7.2910886 -1.8397816 100 0 0
-8.9977245 -5.0436335 1.8860432 100 0 0
-9.0247831 -15.845511 2.1383278 100 0 0
-8.1593752 -15.922746 -1.7404904 100 0 0
-10.444008 -13.446993 -1.4339967 100 0 0
-7.8314157 -6.0143142 -1.4724149 100 0 0
-10.266982 -4.2614808 1.5182045 100 0 0
-11.556287 -12.705579 -0.204126 100 0 0
-9.8390236 -12.463508 -1.7852973 100 0 0
-9.9448347 -11.149945 -0.7025941 100 0 0
-10.732387 -2.9677427 -1.5117137 100 0 0
-7.4732151 -8.8809347 -0.57602048 100 0 0
-8.5990067 -15.903557 1.7430804 100 0 0
-10.439378 -7.4350071 -0.88087636 100 0 0
-10.557565 -12.301195 1.1365162 100 0 0
-9.47645 -7.1901917 -1.7425086 100 0 0
-10.336176 -9.8905487 -1.0869999 100 0 0
-9.539094 -16.503071 1.8129985 100 0 0
-7.2262135 -13.13447 0.88999748 100 0 0
-8.666811 -6.0376811 -1.823025 100 0 0
-10.91466 -5.6623049 -0.10050545 100 0 0
-10.63252 -9.8104935 -0.24391054 100 0 0
-9.0782976 -16.637568 2.0434606 100 0 0
-10.71854 -13.280648 -1.5275179 100 0 0
-7.0394921 -15.806172 1.5070752 100 0 0
-10.153382 -15.929796 -1.455966 100 0 0
-10.741434 -11.474915 1.1393577 100 0 0
-7.5743022 -7.8192172 1.6001799 100 0 0
-7.8182168 -15.916383 1.4228692 100 0 0
-8.5268974 -7.2993994 -1.823409 100 0 0
-7.4975615 -4.4697146 -0.59623635 100 0 0
-10.800699 -15.492303 0.3331418 100 0 0
-10.688851 -17.547476 -1.3368106 100 0 0
-10.067063 -13.07799 -1.1855762 100 0 0
-8.4090948 -11.61903 1.7131237 100 0 0
-7.8577504 -13.571112 1.5799143 100 0 0
-7.6201615 -11.122462 1.6484796 100 0 0
-10.070344 -5.1961269 -1.6287152 100 0 0
-7.69104 -10.834865 1.3627132 100 0 0
-9.6143789 -13.139651 1.7755362 100 0 0
-10.567841 -16.770233 -1.8121425 100 0 0
-7.1812491 -5.1594396 -0.61763835 100 0 0
-6.4801087 -3.7238069 0.63163209 100 0 0
-8.1953764 -13.265689 1.6883494 100 0 0
-7.5072651 -8.3556051 -1.0665647 100 0 0
-11.267028 -11.097515 -1.1196094 100 0 0
-7.6597757 -4.2575202 -0.68482935 100 0 0
-11.116876 -12.44781 -0.55504292 100 0 0
-8.5809269 -7.2814937 -1.9905928 100 0 0
-10.182558 -10.24064 -1.4825047 100 0 0
-7.2570319 -14.534847 -1.2609034 100 0 0
-6.6744189 -5.1813345 -0.4363496 100 0 0
-10.741692 -11.541471 0.60615289 100 0 0
-11.937597 -12.431801 -0.43722343 100 0 0
-7.5826478 -17.791389 -1.1606776 100 0 0
-10.303126 -9.600956 -1.3973356 100 0 0
-10.476406 -14.690921 1.2546314 100 0 0
-11.131474 -12.288574 -0.62217999 100 0 0
-9.1376896 -3.2076309 1.7250221 100 0 0
-9.2826195 -4.1779041 -1.6425775 100 0 0
-9.4882851 -4.1193247 -1.5942295 100 0 0
-7.62608 -7.0264993 -0.15127859 100 0 0
-7.8820949 -16.074659 1.7936349 100 0 0
-7.4374399 -15.082967 -1.1961416 100 0 0
-9.6467857 -12.274826 -1.7992747 100 0 0
-7.8592215 -15.931488 -1.5694076 100 0 0
-10.317571 -4.9348822 0.470698 100 0 0
-8.8807678 -13.765715 -1.8986591 100 0 0
-9.6778536 -16.652231 1.6577867 100 0 0
-10.597836 -17.1022 1.4730639 100 0 0
-7.5077152 -15.662163 1.4015056 100 0 0
-10.152322 -14.789005 1.6979094 100 0 0
-7.7822986 -15.995617 -1.2550167 100 0 0
-7.8069587 -19.483612 -1.5215998 100 0 0
-9.8694601 -6.8996835 1.3013695 100 0 0
-10.153907 -9.106286 0.81956357 100 0 0
-10.633353 -10.144471 -0.88533688 100 0 0
-8.9448042 -11.899156 -1.7182432 100 0 0
-10.467972 -7.4476781 -0.39827022 100 0 0
-9.9169006 -9.4596748 -1.5871468 100 0 0
-8.8507099 -12.863292 -1.9044678 100 0 0
-9.8712063 -5.3983469 -1.9932346 100 0 0
-11.392639 -14.988691 0.079088002 100 0 0
-10.246882 -8.2337303 -0.4015227 100 0 0
-10.171461 -3.6936247 1.2857294 100 0 0
-7.848278 -12.513914 -1.1638881 100 0 0
-9.5854425 -6.3170447 -1.8608584 100 0 0
-8.729682 -15.405847 1.8196453 100 0 0
-7.4582353 -10.539721 -0.17029496 100 0 0
-9.0115576 -7.3355813 1.6960706 100 0 0
-7.9126072 -13.127139 -1.8387125 100 0 0
-9.9048843 -13.332027 1.8464738 100 0 0
-9.857152 -3.1330731 -1.6349483 100 0 0
-8.1007872 -10.780537 1.5057579 100 0 0
-10.299554 -14.73359 -1.5739135 100 0 0
-7.6149087 -11.272193 -1.3512212 100 0 0
-10.512691 -13.038778 -1.3520973 100 0 0
-10.509315 -13.424689 1.20737 100 0 0
-8.07691 -11.594669 -1.1096048 100 0 0
-10.915764 -8.0732088 0.43570504 100 0 0
-10.385822 -14.475256 0.92794228 100 0 0
-7.218123 -18.32527 -0.94950348 100 0 0
-8.7431784 -8.6875801 1.759881 100 0 0
-10.63754 -16.64748 1.8090067 100 0 0
-7.0379262 -13.129844 -0.56553531 100 0 0
-10.740958 -9.5619535 -0.14187744 100 0 0
-10.452901 -6.5865541 0.57251865 100 0 0
-10.080941 -10.18128 1.5375513 100 0 0
-6.7679906 -7.6529651 -0.41409051 100 0 0
-7.9777474 -5.0600076 -1.6828767 100 0 0
-10.009458 -17.009903 -1.3818667 100 0 0
-6.8357549 -3.229265 0.83921522 100 0 0
-7.3581057 -10.201761 -0.97217697 100 0 0
-11.253581 -13.029822 -1.5864569 100 0 0
-8.4409704 -13.427301 -1.9276979 100 0 0
-8.1959066 -13.984735 -1.986619 100 0 0
-10.136914 -15.980016 0.92815608 100 0 0
-10.843431 -5.8295665 0.12500265 100 0 0
-8.0157194 -7.2131934 1.7852817 100 0 0
-11.087574 -7.6741629 -1.000664 100 0 0
-7.8279924 -9.1328402 -1.4453027 100 0 0
-7.5075798 -12.066212 -1.3873278 100 0 0
-7.1191573 -3.1054804 -1.4949982 100 0 0
-10.532282 -5.7090993 -0.25116816 100 0 0
-7.552175 -16.569036 0.15721706 100 0 0
-7.3213725 -14.434206 -0.34955761 100 0 0
-9.0366459 -13.874733 1.9580773 100 0 0
-11.114221 -11.254704 -0.10244701 100 0 0
-7.3383956 -12.483664 0.98552185 100 0 0
-7.418807 -7.3926616 -0.88652265 100 0 0
-11.044564 -11.738244 0.28192362 100 0 0
-7.5906672 -2.9868641 1.6968248 100 0 0
-7.3715267 -15.532157 -1.0287088 100 0 0
-6.9155059 -5.8174086 -0.65256602 100 0 0
-10.553641 -3.3601801 -1.2987707 100 0 0
-7.1208806 -9.9413986 -1.5249554 100 0 0
-8.4610205 -7.4321227 1.5856067 100 0 0
-6.9641209 -15.469241 0.56718355 100 0 0
-7.6998835 -10.220722 -1.8389066 100 0 0
-10.080475 -15.508307 1.0106618 100 0 0
-9.677434 -12.143096 -2.0193172 100 0 0
-9.6860142 -9.997035 1.7500975 100 0 0
-9.9755926 -8.5925941 1.6781563 100 0 0
-9.5401297 -8.2386646 -1.5750098 100 0 0
-7.4840269 -7.0617056 -1.0901293 100 0 0
-7.1774187 -13.199153 -0.51606834 100 0 0
-11.080186 -5.5678196 -0.27052796 100 0 0
-7.1239166 -15.882574 0.4657034 100 0 0
-7.3264804 -9.6297674 -0.1832242 100 0 0
-11.080927 -11.629712 -0.78751814 100 0 0
-10.871934 -4.3389482 1.2620715 100 0 0
-10.044722 -11.694613 1.769649 100 0 0
-8.1555319 -15.996735 1.6328599 100 0 0
-8.2328672 -4.1742673 -1.9443064 100 0 0
-8.3579111 -6.3949409 -1.894243 100 0 0
-7.8072987 -15.670024 1.3717617 100 0 0
-8.6996422 -6.8015318 -2.0227182 100 0 0
-6.8863955 -15.449922 -0.26193908 100 0 0
-8.7009716 -6.0345159 1.7742435 100 0 0
-8.7653913 -9.034812 -1.9822466 100 0 0
-9.0694942 -7.3076253 1.8275229 100 0 0
-10.469931 -14.454003 0.89784122 100 0 0
-8.8136349 -5.4636736 1.7700149 100 0 0
-8.367795 -12.85172 -1.7963996 100 0 0
-7.9935288 -19.683712 -0.87116867 100 0 0
-8.9621964 -10.578254 1.8611057 100 0 0
-11.293189 -16.079662 -1.4646635 100 0 0
-9.1337137 -8.3820162 1.9283202 100 0 0
-8.8838711 -8.4272175 1.8331382 100 0 0
-9.3499603 -7.8468728 1.8248057 100 0 0
-7.2120576 -6.2092376 -1.2314832 100 0 0
-9.7453241 -3.7951088 -1.7595723 100 0 0
-7.3980789 -5.8955135 0.32621029 100 0 0
-8.7444115 -8.9614849 2.0460503 100 0 0
-6.9322004 -9.9540739 0.086977273 100 0 0
-8.6142683 -14.716321 1.7480294 100 0 0
-8.5645294 -10.370848 -1.8729297 100 0 0
-9.0931177 -6.5761967 1.8934624 100 0 0
-8.6792727 -7.87289 -2.0317369 100 0 0
-8.2057219 -11.484167 1.7746011 100 0 0
-7.7760196 -12.635267 1.4123403 100 0 0
-6.7404218 -16.650488 0.1218261 100 0 0
-7.7362661 -17.997976 1.0806296 100 0 0
-10.987508 -7.2318821 -0.74169934 100 0 0
-7.5723987 -9.4326668 1.9292984 100 0 0
-8.1441116 -6.1909618 -1.6171629 100 0 0
-10.419818 -14.277788 -1.0564342 100 0 0
-8.9925394 -9.9389505 2.0712886 100 0 0
-8.6929598 -16.79241 -1.8996836 100 0 0
-11.221892 -15.014351 0.28545484 100 0 0
-6.4773159 -4.213511 0.39621952 100 0 0
-8.7095852 -3.1542552 -1.859974 100 0 0
-7.48456 -11.650275 0.87361723 100 0 0
-8.1118622 -4.9990697 1.8602791 100 0 0
-7.8269229 -6.2245631 0.82151788 100 0 0
-11.050053 -12.771626 -0.34634078 100 0 0
-7.9262233 -7.9388986 -1.8018091 100 0 0
-9.7622766 -12.321433 -0.91961652 100 0 0
-8.1556787 -13.629441 1.3566308 100 0 0
-9.1700497 -15.493019 -1.7924501 100 0 0
-10.361592 -7.7326803 -1.2946215 100 0 0
-9.3175211 -4.6716037 -1.8444123 100 0 0
-8.5498085 -11.122981 -1.9083303 100 0 0
-8.6146765 -9.2517776 -1.8643188 100 0 0
-6.5468726 -5.1928763 -1.1103228 100 0 0
-9.8384027 -12.851343 1.9116915 100 0 0
-7.0983977 -7.9399486 -0.35051802 100 0 0
-8.0478182 -15.227575 -1.3152243 100 0 0
-8.3428955 -12.516088 1.6866307 100 0 0
-9.4861412 -10.85291 -2.0068758 100 0 0
-10.304273 -6.8148689 -1.5389314 100 0 0
-7.2024746 -18.227341 0.79315609 100 0 0
-7.1134381 -15.91393 0.27168646 100 0 0
-10.664405 -6.6966863 -1.2296805 100 0 0
-10.976912 -13.931973 1.078756 100 0 0
-10.466623 -17.1408 -0.92332375 100 0 0
-6.9378204 -6.6219716 0.045082524 100 0 0
-9.3247175 -17.00819 1.7164547 100 0 0
-10.171148 -6.7316437 -1.2965903 100 0 0
-8.4144106 -12.126988 -1.81616 100 0 0
-8.9592104 -6.6999741 1.2351668 100 0 0
-9.8214102 -4.0760956 1.665189 100 0 0
-10.772699 -6.3862853 1.055045 100 0 0
-9.8446522 -12.358053 -1.6300483 100 0 0
-11.13188 -8.833847 0.23205611 100 0 0
-8.9639359 -5.8088627 -1.9127425 100 0 0
-7.8434253 -9.7393541 1.6795363 100 0 0
-11.510669 -8.3452549 0.13418747 100 0 0
-8.8820181 -4.5335994 1.7612104 100 0 0
-9.252574 -6.3396902 -0.71802515 100 0 0
-8.2927866 -12.344148 1.7088771 100 0 0
-9.4621086 -7.0801716 -2.011158 100 0 0
-7.5810943 -11.14884 -1.2237426 100 0 0
-11.507887 -4.9535379 -0.14748399 100 0 0
-9.4259605 -7.1296358 1.4683106 100 0 0
-9.9780207 -8.3469534 1.9293615 100 0 0
-10.288698 -14.357557 -0.43630764 100 0 0
-6.9420428 -3.9928355 1.1354789 100 0 0
-8.4434299 -5.6311731 -1.7325481 100 0 0
-7.0282216 -3.7140696 -0.31145573 100 0 0
-8.2690248 -4.9681807 1.7314821 100 0 0
-8.874527 -12.913999 1.8809988 100 0 0
-7.3209648 -12.404825 0.10045858 100 0 0
-9.3493395 -5.5122032 -1.6285391 100 0 0
-7.9662566 -7.757875 -1.8703423 100 0 0
-7.5191102 -11.889295 -1.7972898 100 0 0
-8.4539948 -17.206127 1.5992945 100 0 0
-7.2545338 -3.9360611 0.7158072 100 0 0
-9.2612371 -7.8659863 -1.5300232 100 0 0
-9.4003839 -16.659231 -0.81458682 100 0 0
-9.2106552 -18.312063 -1.3697246 100 0 0
-10.1349 -10.152208 1.7202702 100 0 0
-7.9720297 -14.6562 -1.461049 100 0 0
-9.831584 -15.101032 -1.8333991 100 0 0
-9.9645252 -15.529215 -1.0133381 100 0 0
-7.1704512 -6.6999316 -0.41745538 100 0 0
-9.4076338 -13.795284 -1.3713375 100 0 0
-8.7822933 -18.81249 -1.8352332 100 0 0
-7.3127751 -16.930019 -1.2535644 100 0 0
-9.0074377 -16.09532 1.9114509 100 0 0
-10.111694 -6.1018662 1.5634918 100 0 0
-9.9201345 -15.210691 0.98437899 100 0 0
-7.807519 -14.682454 1.5479718 100 0 0
-11.548686 -8.8345842 0.5274753 100 0 0
-7.8226342 -13.752873 -1.5365579 100 0 0
-10.613752 -13.933062 -1.5058067 100 0 0
-7.6554389 -16.867483 1.4442904 100 0 0
-7.3595448 -3.7805932 -1.359333 100 0 0
-7.9044504 -11.230762 -1.1433233 100 0 0
-7.5870237 -3.8696985 1.5815012 100 0 0
-10.643276 -3.7960911 -0.26510462 100 0 0
-10.012792 -5.523407 1.8173891 100 0 0
-10.822479 -15.802785 -1.2160743 100 0 0
-10.005764 -14.643674 -0.075242028 100 0 0
-10.54073 -14.051667 -1.4873142 100 0 0
-7.9649687 -4.2177405 -1.8149583 100 0 0
-8.398778 -16.775499 -1.7724105 100 0 0
-8.6950903 -2.8666246 -1.9387058 100 0 0
-7.6888862 -11.748637 -0.90838242 100 0 0
-8.9350824 -13.547968 -1.9291492 100 0 0
-7.3348913 -6.3243895 -1.1100217 100 0 0
-7.1604891 -8.1183615 -0.038178366 100 0 0
-10.351054 -8.8171787 1.6645341 100 0 0
-8.8425093 -12.004814 -1.7355084 100 0 0
-7.6152496 -9.1825533 1.4774861 100 0 0
-7.8839154 -9.7001352 -1.1678059 100 0 0
-7.7117791 -4.0138311 0.51400715 100 0 0
-8.5999527 -18.399332 1.9071816 100 0 0
-8.9967642 -12.858073 1.9046944 100 0 0
-7.1990156 -15.604856 -0.47629029 100 0 0
-10.387654 -12.528776 -1.0886041 100 0 0
-11.060231 -6.4828329 0.067949042 100 0 0
-7.7713428 -7.1551914 0.6458739 100 0 0
-10.133071 -16.378382 0.7346772 100 0 0
-7.4438024 -14.198925 0.87796462 100 0 0
-8.0829983 -9.3169632 -1.6263824 100 0 0
-9.2855911 -8.541832 2.0398564 100 0 0
-10.317183 -16.481853 -1.2872518 100 0 0
-9.8298426 -16.665447 -1.4848601 100 0 0
-8.6218185 -14.306063 1.7383631 100 0 0
-9.8864603 -12.699385 -1.7226213 100 0 0
-10.988489 -4.0100327 1.1835978 100 0 0
-9.5739117 -10.938707 -1.641346 100 0 0
-7.0910287 -4.4588647 0.92588067 100 0 0
-8.3240891 -11.853124 1.8869448 100 0 0
-10.818092 -14.266079 -1.3848095 100 0 0
-8.5657778 -11.465867 1.6599594 100 0 0
-10.139775 -10.095256 -1.6385974 100 0 0
-7.6729155 -14.02106 -1.1861918 100 0 0
-8.6820297 -15.916942 -1.8765347 100 0 0
-7.3583016 -9.1239758 0.9055388 100 0 0
-10.014222 -8.3620701 -1.8415679 100 0 0
-9.9132195 -8.4112225 -1.7219549 100 0 0
-10.541508 -15.237531 1.6765578 100 0 0
-10.971393 -12.912236 0.37575522 100 0 0
-8.9530134 -8.9578934 1.8695736 100 0 0
-10.292526 -16.528776 -0.26227462 100 0 0
-10.770933 -15.659804 1.454452 100 0 0
-7.6196151 -9.7300262 0.37121692 100 0 0
-8.687438 -9.4333582 -1.939445 100 0 0
-10.639461 -3.3593109 0.052808918 100 0 0
-7.2739134 -10.046611 -1.5325221 100 0 0
-9.9170589 -13.491787 1.5541085 100 0 0
-7.2795796 -7.949358 -0.11293428 100 0 0
-9.066514 -4.2658534 2.0360355 100 0 0
-7.7043934 -8.227767 1.6525198 100 0 0
-10.308062 -12.906671 -1.5588027 100 0 0
-7.5073767 -10.025568 -1.3541799 100 0 0
-10.728641 -8.0907412 0.31698251 100 0 0
-7.8191314 -9.1470394 1.2037026 100 0 0
-7.6012878 -10.268089 1.1182153 100 0 0
-8.4240818 -17.41745 1.8006593 100 0 0
-9.8303061 -4.7619586 -2.0263383 100 0 0
-9.8063507 -9.2336864 1.1264188 100 0 0
-8.6338482 -7.2239456 1.8264641 100 0 0
-10.181524 -15.096104 -1.3483635 100 0 0
-6.8589001 -14.154157 0.17202833 100 0 0
-10.468347 -13.191384 -1.5533022 100 0 0
-8.1305304 -18.063486 1.7438804 100 0 0
-10.807775 -6.2889838 -0.67514235 100 0 0
-10.643816 -11.237303 -0.19512174 100 0 0
-8.497262 -8.5058823 1.7540176 100 0 0
-8.1583471 -16.548447 1.9696642 100 0 0
-10.255819 -10.487901 1.1216248 100 0 0
-6.8194551 -14.18513 -0.10404502 100 0 0
-11.5012 -12.377109 -0.047409821 100 0 0
-7.7091861 -4.5929403 1.529912 100 0 0
-11.088274 -7.4469891 0.18033493 100 0 0
-7.8991351 -9.5563793 -1.406554 100 0 0
-9.7646828 -8.7055264 1.8699975 100 0 0
-10.02358 -6.8843927 -0.60891628 100 0 0
-8.3569765 -16.060497 1.4477199 100 0 0
-7.2361488 -5.989625 -0.9671731 100 0 0
-7.8979683 -16.630339 1.7995794 100 0 0
-7.069375 -14.628248 0.088967107 100 0 0
-11.781136 -5.4325509 -0.71669382 100 0 0
-7.4730887 -14.662794 1.1227474 100 0 0
-9.392642 -14.137945 1.9576825 100 0 0
-7.2669897 -15.307077 -0.74468827 100 0 0
-10.045136 -3.6842542 -0.86423326 100 0 0
-9.4722967 -17.054853 1.7699022 100 0 0
-9.8691206 -18.214216 1.8487505 100 0 0
-10.116839 -15.140589 -1.5877006 100 0 0
-7.3089876 -5.5048733 1.1073439 100 0 0
-7.9042358 -15.397365 1.21334 100 0 0
-7.5732856 -13.455397 -0.64504147 100 0 0
-8.7875004 -5.6563139 1.9932379 100 0 0
-6.6418676 -6.0673084 0.11403378 100 0 0
-7.6620669 -16.503139 -1.0715595 100 0 0
-7.3974376 -14.750279 1.2842462 100 0 0
-9.2010355 -11.338574 1.8698559 100 0 0
-8.6740589 -10.494317 -1.6813512 100 0 0
-9.4251204 -5.40762 -1.8317254 100 0 0
-10.703126 -17.876266 0.0012216578 100 0 0
-11.026906 -17.808367 0.43498319 100 0 0
-10.519202 -3.1488614 -0.89688551 100 0 0
-10.781159 -6.2320685 1.362039 100 0 0
-7.0508327 -4.9608088 -0.083170027 100 0 0
-6.8010888 -16.752689 -0.85079259 100 0 0
-7.0743623 -2.6796856 -0.094420709 100 0 0
-10.374996 -3.3316483 -0.053539164 100 0 0
-6.825182 -12.798759 0.056195971 100 0 0
-10.073866 -18.521593 -1.3106127 100 0 0
-9.3359137 -6.8111506 1.7490129 100 0 0
-7.8706703 -4.9931254 1.7581652 100 0 0
-10.914826 -10.883474 0.79598111 100 0 0
-10.594172 -2.9672494 0.52984047 100 0 0
-10.770883 -4.6736393 0.91354865 100 0 0
-10.904424 -7.2942657 -0.89340007 100 0 0
-7.5885262 -17.318657 -1.3477441 100 0 0
-7.2693429 -13.641735 -1.3986979 100 0 0
-7.1596179 -18.518732 -0.88470566 100 0 0
-10.149486 -3.0100617 1.9792906 100 0 0
-10.880179 -11.471565 -1.1967095 100 0 0
-6.6798053 -7.8123608 0.070100047 100 0 0
-10.054495 -6.3153882 -0.96287328 100 0 0
-9.569582 -14.35361 1.7817135 100 0 0
-10.999936 -7.749445 1.5375761 100 0 0
-8.8100939 -16.238638 -2.0008314 100 0 0
-11.490709 -9.3598614 0.16210653 100 0 0
-10.6324 -5.8735709 -1.260746 100 0 0
-9.3754807 -14.296007 1.5182997 100 0 0
-10.993257 -5.3357754 1.3515764 100 0 0
-10.486473 -17.967325 0.9871881 100 0 0
-6.9081626 -3.0376449 -0.82579547 100 0 0
-10.054943 -8.3695955 1.2004193 100 0 0
-10.250126 -16.252583 1.0986559 100 0 0
-10.037547 -14.827022 1.7782559 100 0 0
-8.0137796 -17.346823 1.5851978 100 0 0
-8.3027124 -14.338211 -1.6167234 100 0 0
-10.527282 -18.157887 1.4111854 100 0 0
-7.9281511 -5.3654675 1.7693421 100 0 0
-11.193588 -7.3577042 0.7556904 100 0 0
-9.7276545 -10.37828 -1.5130163 100 0 0
-7.7766895 -11.112636 1.5541835 100 0 0
-7.4064717 -17.223999 1.6376774 100 0 0
-6.9244313 -6.3670568 1.5645727 100 0 0
-10.67971 -16.115469 -0.46722135 100 0 0
-9.0474386 -13.280808 -1.8326552 100 0 0
-9.9876776 -10.995752 0.96640247 100 0 0
-10.022245 -12.768872 1.6387839 100 0 0
-10.899686 -16.844481 0.78860235 100 0 0
-11.087893 -15.869032 -1.1667014 100 0 0
-7.9170828 -17.762487 1.6431508 100 0 0
-8.4460411 -18.985704 -1.8806237 100 0 0
-8.9246578 -6.7286534 2.1059532 100 0 0
-9.6748161 -9.107357 1.5502117 100 0 0
-11.045603 -19.964312 1.5659567 100 0 0
-10.766589 -12.367709 -0.27815247 100 0 0
-9.7593441 -11.756746 -1.5531183 100 0 0
-9.1280899 -15.392429 1.8100744 100 0 0
