ply
format ascii 1.0
comment PCL generated
element vertex 1167
property float x
property float y
property float z
property uchar red
property uchar green
property uchar blue
element camera 0
property float view_px
property float view_py
property float view_pz
property float x_axisx
property float x_axisy
property float x_axisz
property float y_axisx
property float y_axisy
property float y_axisz
property float z_axisx
property float z_axisy
property float z_axisz
property float focal
property float scalex
property float scaley
property float centerx
property float centery
property int viewportx
property int viewporty
property float k1
property float k2
end_header
-5.7158775 -12.271126 -1.7782767 100 0 0
-6.7115798 -6.8356318 2.2689369 100 0 0
-5.1772423 -10.73581 1.1460475 100 0 0
-5.5381479 -13.67086 0.42715269 100 0 0
-4.487957 -1.9949872 0.67365402 100 0 0
-4.9633546 -11.576018 -0.69289106 100 0 0
-4.9544187 -13.644868 0.10072701 100 0 0
-8.6418247 -10.277964 -2.1012468 100 0 0
-8.488266 -3.0521367 -2.2097208 100 0 0
-6.7017894 -7.20296 2.2347648 100 0 0
-9.7974195 -12.171606 -0.26927391 100 0 0
-8.0396614 -3.7487307 1.4949172 100 0 0
-5.9114099 -2.1177504 -0.84746259 100 0 0
-7.9673061 -15.278288 -2.2250898 100 0 0
-5.7041979 -1.0451008 1.5934494 100 0 0
-9.4764271 -9.4449091 -1.5608432 100 0 0
-5.5028391 -12.576523 0.78687686 100 0 0
-4.8256316 -13.688817 -1.0466871 100 0 0
-6.259717 -14.359336 -1.9071683 100 0 0
-9.2601156 -16.456537 1.8069235 100 0 0
-5.062561 -11.675714 0.19407469 100 0 0
-6.7379146 -12.256312 -2.3572552 100 0 0
-4.9218764 -11.167748 0.42143551 100 0 0
-5.89359 -3.7407937 2.0348377 100 0 0
-7.7499642 -6.9858775 2.5329394 100 0 0
-8.4577942 -14.707941 2.1695623 100 0 0
-6.0180907 -6.9210839 -1.3965814 100 0 0
-9.1580086 -8.9241228 -0.93207407 100 0 0
-6.8800459 -4.4604058 -2.2096045 100 0 0
-5.4461265 -13.716382 -1.5187579 100 0 0
-6.7636108 -10.586731 2.0616417 100 0 0
-9.2509394 -13.962358 -0.77419114 100 0 0
-6.040503 -9.5087633 2.058984 100 0 0
-6.0446644 -1.9569401 1.8252611 100 0 0
-9.6750879 -6.7813997 0.2579563 100 0 0
-7.0585737 -3.0985398 2.2802932 100 0 0
-8.9354572 -0.84787267 1.5268273 100 0 0
-5.7440929 -7.1891603 -1.5921613 100 0 0
-9.1537552 -0.90764397 0.79123503 100 0 0
-7.8862119 -7.8523507 -2.2808354 100 0 0
-4.8010039 -1.3575019 0.73696023 100 0 0
-6.1052232 -15.27212 -1.9908496 100 0 0
-10.292649 -5.789247 -0.69009489 100 0 0
-5.2997279 -3.9730761 1.0335975 100 0 0
-6.863543 -16.460508 2.1158972 100 0 0
-5.5028248 -0.40060601 0.68213296 100 0 0
-7.7988472 -1.7247753 2.3306093 100 0 0
-6.7568989 -9.4083557 -2.1527953 100 0 0
-7.9358301 -0.53870213 -2.1329415 100 0 0
-8.0229759 -3.3611979 -2.2336175 100 0 0
-7.5607033 -9.0872498 2.2890034 100 0 0
-8.9820471 -8.1578312 1.927152 100 0 0
-7.4013624 -12.10098 -2.211911 100 0 0
-9.4476061 -1.5416107 0.25358212 100 0 0
-7.3353424 -11.26554 -2.2190554 100 0 0
-6.8715987 -11.78089 -2.2171481 100 0 0
-5.3802385 -14.785527 -1.2746346 100 0 0
-4.9563737 -6.8723865 0.17466749 100 0 0
-8.7364855 -0.94911551 -2.2244778 100 0 0
-8.1622686 -9.6783037 -2.2419252 100 0 0
-5.5108681 -14.44249 -0.5673691 100 0 0
-9.3326149 -8.571476 -1.7593318 100 0 0
-8.1855612 -8.7731924 2.240793 100 0 0
-5.1173162 -6.7979727 0.93339664 100 0 0
-5.9394813 -6.1321597 1.8086871 100 0 0
-4.9435844 -0.56633794 -0.51070613 100 0 0
-6.2320151 -14.118034 -2.1753838 100 0 0
-5.0790553 -14.26932 0.2527788 100 0 0
-10.080461 -6.7067995 -0.0079439981 100 0 0
-8.7294168 -5.4491143 -2.1324785 100 0 0
-9.5125313 -10.974017 1.7310073 100 0 0
-9.4419012 -15.232802 -1.2688478 100 0 0
-6.5253968 -6.638536 2.0279629 100 0 0
-7.7120872 -3.3276348 -2.1758621 100 0 0
-7.9522543 -10.628552 2.1890969 100 0 0
-4.9964905 -10.242091 0.18006368 100 0 0
-5.3739886 -9.1625309 0.33479521 100 0 0
-9.1667404 -6.3463426 -0.26257783 100 0 0
-7.4108434 -16.365913 2.1994104 100 0 0
-5.1944556 -6.420361 0.38765296 100 0 0
-9.2269955 -6.2447476 0.76817304 100 0 0
-6.3256416 -10.714199 -2.178148 100 0 0
-9.7879152 -1.2829024 0.20059901 100 0 0
-6.4641995 -5.6506062 2.345078 100 0 0
-10.062775 -8.2569885 0.91882265 100 0 0
-4.9537935 -3.6322269 -0.95713294 100 0 0
-9.7047586 -10.932304 0.065148406 100 0 0
-5.351532 -13.477972 -0.053018797 100 0 0
-9.6356983 -7.6284099 0.3121897 100 0 0
-8.9776144 -1.2399466 -1.5911539 100 0 0
-5.9311132 -5.3086739 1.7552822 100 0 0
-5.5536423 -2.957948 -0.086463362 100 0 0
-6.6138039 -13.108138 -2.0470459 100 0 0
-5.1230063 -13.542534 -1.1971002 100 0 0
-7.8284674 -5.8040485 1.981624 100 0 0
-6.3419232 -4.2043066 2.0679827 100 0 0
-9.5174303 -14.813848 -0.14561275 100 0 0
-4.994596 -2.9686852 0.94291604 100 0 0
-5.1790838 -10.871145 -1.3623439 100 0 0
-9.2498369 -1.1355159 -0.20807427 100 0 0
-8.7116146 -11.30986 -1.4558215 100 0 0
-10.351826 -7.6138544 -0.28141275 100 0 0
-5.9853992 -12.459824 -1.9059039 100 0 0
-6.8973446 -4.1687078 -2.0391889 100 0 0
-5.417141 -15.014354 0.96319216 100 0 0
-5.2295637 -9.2335844 -1.255751 100 0 0
-8.7026997 -15.558211 1.5426993 100 0 0
-9.2335434 -5.8236928 1.3351011 100 0 0
-9.2611294 -2.3728056 -1.3641584 100 0 0
-7.032012 -4.8188248 2.1908727 100 0 0
-8.0966072 -13.580316 2.0658586 100 0 0
-7.8136315 -6.5954332 2.1194212 100 0 0
-5.3603792 -9.1364346 -0.96335948 100 0 0
-6.411139 -11.448127 -2.1709659 100 0 0
-5.9708958 -9.5018587 1.5510439 100 0 0
-8.2205448 -12.602945 2.1888728 100 0 0
-6.1567345 -3.9896297 1.7464573 100 0 0
-8.4712505 -12.452226 2.1090701 100 0 0
-8.743021 -0.46186563 -2.1726451 100 0 0
-5.9423604 -4.7248712 -1.7275548 100 0 0
-8.7463589 -0.97433782 1.8532698 100 0 0
-8.1479855 -7.0286164 2.1238387 100 0 0
-6.2749262 -6.6855025 -2.0968928 100 0 0
-10.360155 -0.99766004 -0.81447679 100 0 0
-8.2782393 -11.8661 -0.77472645 100 0 0
-5.7128296 -0.96479809 1.216709 100 0 0
-9.8642569 -5.8227887 1.6671567 100 0 0
-6.1290779 -1.8482729 -1.8563988 100 0 0
-9.4124947 -6.2772422 -1.9777315 100 0 0
-8.5371809 -8.6120319 -1.9941647 100 0 0
-9.884819 -12.327157 1.2262523 100 0 0
-9.6306028 -9.8074694 0.81591028 100 0 0
-8.0199127 -3.8159041 2.0433731 100 0 0
-5.6481795 -11.660645 -1.5397407 100 0 0
-5.2123952 -2.9273195 -1.1179599 100 0 0
-10.161922 -8.6550856 -0.58713484 100 0 0
-8.6395788 -11.703322 -1.4952081 100 0 0
-9.5173645 -9.4270411 0.35292512 100 0 0
-8.5629301 -6.1695089 -0.97179323 100 0 0
-9.7419491 -14.591064 0.38292468 100 0 0
-9.1989889 -13.143331 1.3109583 100 0 0
-8.8441095 -5.1499567 -1.7841742 100 0 0
-9.1096878 -11.132185 1.4842281 100 0 0
-9.071413 -14.583491 -1.8897336 100 0 0
-6.4713035 -6.2895441 2.2013085 100 0 0
-6.0970383 -13.192569 1.9149132 100 0 0
-6.0288839 -1.5518143 -2.0545633 100 0 0
-8.564045 -3.2356339 2.2334843 100 0 0
-4.6341424 -8.5361872 -0.96973389 100 0 0
-8.9748974 -4.5226951 1.4000055 100 0 0
-9.0527496 -14.022348 -0.46610925 100 0 0
-8.3032141 -4.0144048 -2.3842592 100 0 0
-7.0523314 -2.0081046 2.3502395 100 0 0
-5.3889909 -3.605618 -0.80521661 100 0 0
-9.0285635 -15.107501 1.8290682 100 0 0
-5.0302114 -13.508902 -0.15732779 100 0 0
-5.108335 -4.8339028 -0.21205659 100 0 0
-8.2562075 -1.1551527 -2.0013206 100 0 0
-5.3077655 -14.856882 -0.91161311 100 0 0
-9.3086472 -9.7154951 1.2083929 100 0 0
-7.4666615 -2.355674 -2.3751149 100 0 0
-9.3211575 -6.4859433 1.4749914 100 0 0
-8.2058182 -12.068617 -2.3468747 100 0 0
-5.9525476 -3.464823 1.6554936 100 0 0
-9.5305052 -12.53037 0.8811776 100 0 0
-9.5150528 -3.1631539 -1.2856063 100 0 0
-5.4359994 -2.238127 1.6712079 100 0 0
-8.3115902 -0.77941626 -2.0037496 100 0 0
-8.1399088 -0.99372441 -2.0848277 100 0 0
-8.482563 -14.15369 -2.2577438 100 0 0
-7.5838547 -1.7771205 2.2371635 100 0 0
-8.1122599 -1.4279112 -2.0236948 100 0 0
-9.1272802 -15.251333 -1.994099 100 0 0
-9.4747524 -3.9371605 -0.93322521 100 0 0
-5.0588293 -15.754737 0.80390704 100 0 0
-8.2102938 -3.7400019 1.9927639 100 0 0
-9.4935417 -5.8889832 -0.53167129 100 0 0
-9.9324055 -4.6265635 -0.20351633 100 0 0
-9.2349367 -15.40494 -1.3105732 100 0 0
-8.193697 -12.440935 -2.0184348 100 0 0
-5.840672 -14.053681 2.0065928 100 0 0
-8.4732857 -7.8555636 -1.157302 100 0 0
-8.6070719 -13.513004 -1.911329 100 0 0
-8.9223909 -10.354979 -2.1143012 100 0 0
-9.5992279 -9.7095346 -0.22918455 100 0 0
-8.5254107 -12.174846 -1.0271704 100 0 0
-6.1215949 -14.435116 -2.0638649 100 0 0
-7.9429855 -1.0501028 2.3294485 100 0 0
-9.6626863 -9.7889538 -0.88364494 100 0 0
-8.186389 -11.29419 -1.9766881 100 0 0
-5.1022196 -13.150672 -0.79906482 100 0 0
-7.0953026 -15.40403 2.2793396 100 0 0
-6.7018127 -10.411284 -2.2584171 100 0 0
-10.061196 -10.354977 0.16043589 100 0 0
-9.5553141 -2.5331392 1.3489652 100 0 0
-5.4183297 -2.5371592 -0.76416337 100 0 0
-7.4422402 -9.6973782 -2.3256903 100 0 0
-5.3157597 -7.4981546 -1.1868052 100 0 0
-5.92658 -0.60578954 1.8155035 100 0 0
-5.2844386 -13.634032 0.99290866 100 0 0
-10.170609 -9.4204216 1.4470533 100 0 0
-8.9085388 -4.7567353 1.6727986 100 0 0
-9.973053 -13.424536 -1.6545432 100 0 0
-6.6192412 -7.1901388 -1.9988689 100 0 0
-9.9491606 -2.8087475 -0.23426324 100 0 0
-6.7355771 -9.6345587 -2.4552553 100 0 0
-4.8515468 -10.958317 -0.490246 100 0 0
-9.5884924 -13.519481 -1.2911911 100 0 0
-5.7490263 -1.9282639 1.8183916 100 0 0
-6.6039925 -10.098282 2.1675248 100 0 0
-10.695686 -9.5200167 -0.81757188 100 0 0
-6.1197734 -1.8307478 2.160264 100 0 0
-6.4105253 -6.0169249 -2.1639595 100 0 0
-5.0643492 -8.6989079 -0.21517017 100 0 0
-9.1789494 -12.678035 0.86474484 100 0 0
-9.0755205 -4.6601477 -1.8590627 100 0 0
-6.6606345 -6.3539653 2.2171521 100 0 0
-5.2035861 -4.5618315 -1.3209461 100 0 0
-5.1016259 -2.3418949 0.64279425 100 0 0
-6.0693989 -11.601721 1.9124212 100 0 0
-5.7992644 -13.763967 -1.3096892 100 0 0
-7.1021943 -3.7283332 2.2121921 100 0 0
-8.5713797 -13.236512 1.8345267 100 0 0
-5.0006022 -6.7690654 0.057162575 100 0 0
-7.1058865 -4.4938369 -2.4737802 100 0 0
-5.2136974 -11.656614 -0.38298112 100 0 0
-9.6942949 -1.5800846 -1.4714891 100 0 0
-10.185398 -5.9216571 1.0219624 100 0 0
-8.3715391 -10.230267 1.9894174 100 0 0
-10.663331 -6.4440279 -0.16399494 100 0 0
-5.3064694 -0.99759912 0.029124362 100 0 0
-6.9226255 -4.2693958 2.3443768 100 0 0
-8.9018354 -13.281476 -0.44934228 100 0 0
-9.4259682 -12.929049 -0.42267069 100 0 0
-4.7365746 -4.2640805 0.27439371 100 0 0
-10.636543 -14.209055 -0.50652164 100 0 0
-6.0633821 -5.9445901 -1.8000416 100 0 0
-5.0696793 -2.0554438 -0.32902628 100 0 0
-9.1637154 -3.0732455 0.66019034 100 0 0
-9.5430784 -7.5758815 0.77457672 100 0 0
-6.7079577 -2.1619871 2.0342484 100 0 0
-7.1936989 -1.9723692 2.152411 100 0 0
-5.9045277 -13.17335 -2.0793941 100 0 0
-7.2741976 -10.026127 -2.3281083 100 0 0
-5.2206144 -6.30018 -0.83156705 100 0 0
-6.1096482 -2.8505757 -1.6367272 100 0 0
-6.6630573 -9.4591846 2.2957368 100 0 0
-5.9218707 -8.1056175 1.5532482 100 0 0
-9.165782 -10.921804 -0.44881043 100 0 0
-10.03812 -6.9545507 0.23260778 100 0 0
-5.7844787 -6.3685546 1.7389824 100 0 0
-9.4936876 -11.906157 1.3806535 100 0 0
-8.662528 -15.373372 -0.10401585 100 0 0
-6.8347921 -1.9529855 -2.4023395 100 0 0
-6.6552377 -13.716533 2.3275235 100 0 0
-9.3609562 -12.871333 -1.0044614 100 0 0
-5.9996657 -3.6654418 -1.9877186 100 0 0
-9.5400257 -8.9593658 -1.3781543 100 0 0
-8.0462809 -10.080631 2.0545962 100 0 0
-7.8941884 -0.46917096 2.2061689 100 0 0
-5.1914344 -5.5954537 0.49159855 100 0 0
-9.1274862 -5.8262334 -0.9422183 100 0 0
-5.5972023 -0.41570348 1.3738856 100 0 0
-6.3440151 -5.7978911 1.9576894 100 0 0
-8.3408194 -8.5299034 2.0781791 100 0 0
-9.3593998 -13.321713 -0.48090357 100 0 0
-9.2390051 -15.47189 1.9060141 100 0 0
-8.5211563 -7.1693835 -1.9768409 100 0 0
-9.3436413 -16.477818 1.2501143 100 0 0
-4.8700895 -9.63727 0.75511158 100 0 0
-5.1819015 -5.4151864 0.79744035 100 0 0
-8.8440189 -3.6000504 -1.5622497 100 0 0
-5.2142401 -0.79399812 -0.356024 100 0 0
-5.1155677 -7.7586727 -0.39118922 100 0 0
-9.1018181 -16.22072 1.6854434 100 0 0
-5.8218436 -1.1650751 1.3573248 100 0 0
-5.0332603 -13.780033 0.68299401 100 0 0
-9.5468092 -3.5498822 1.0194278 100 0 0
-8.5253716 -10.544234 1.6232803 100 0 0
-9.8373489 -0.37872952 1.0860062 100 0 0
-5.2761688 -3.1202791 0.80443829 100 0 0
-9.7228107 -1.5321976 1.2694112 100 0 0
-5.2394614 -16.077515 -1.5029685 100 0 0
-4.7234063 -13.519734 -0.20094818 100 0 0
-10.427925 -6.8876419 0.30350372 100 0 0
-9.6152344 -10.571324 -0.96247786 100 0 0
-6.7038522 -8.5396986 -2.2251081 100 0 0
-4.8010182 -2.0288696 0.71988434 100 0 0
-5.3953819 -1.6066087 -1.3211335 100 0 0
-8.1745577 -3.686121 -2.3268204 100 0 0
-8.5644932 -6.2188678 -2.0702035 100 0 0
-5.0618548 -14.376576 -0.82948118 100 0 0
-5.5328755 -13.566547 0.38877186 100 0 0
-4.9916358 -14.044822 0.51102316 100 0 0
-5.9491982 -10.474768 2.0003102 100 0 0
-8.6230373 -2.2867188 -2.1631203 100 0 0
-6.6470895 -2.2818162 2.1055937 100 0 0
-4.8696594 -11.518428 -0.36480042 100 0 0
-7.5041108 -15.807231 -2.4285285 100 0 0
-5.967958 -8.0485897 -2.3772616 100 0 0
-8.8281527 -9.228796 1.9706221 100 0 0
-7.9367862 -13.563652 2.1799681 100 0 0
-8.6508112 -14.15521 1.6434475 100 0 0
-9.2361746 -3.1998856 -0.22440705 100 0 0
-8.4441128 -7.047699 -2.4389076 100 0 0
-8.5626411 -14.638151 2.0488248 100 0 0
-9.7956209 -3.9093914 0.56527179 100 0 0
-5.9059596 -3.5391395 1.9123484 100 0 0
-6.0536928 -13.848839 -2.0713079 100 0 0
-5.7587461 -3.5401266 -1.4769937 100 0 0
-7.5205379 -12.59617 -2.2045228 100 0 0
-9.6598139 -1.216004 1.0694371 100 0 0
-9.5054274 -13.32888 1.5176915 100 0 0
-9.712491 -7.4591379 0.23039944 100 0 0
-8.2210436 -2.2350402 -2.2584879 100 0 0
-9.2935562 -12.583381 -0.6455732 100 0 0
-9.8797979 -3.7779009 -0.55623627 100 0 0
-10.001589 -1.3966303 -0.039899606 100 0 0
-8.9442825 -6.2316947 0.11402895 100 0 0
-9.6390553 -6.8662605 1.4140234 100 0 0
-5.4757767 -15.788495 -1.1038674 100 0 0
-7.6966953 -3.1708016 -2.3672969 100 0 0
-6.6616759 -13.212171 -2.3020859 100 0 0
-6.2203183 -5.696485 2.2142699 100 0 0
-6.4243665 -9.838624 -2.1785243 100 0 0
-5.6533089 -2.977951 -1.1054933 100 0 0
-6.3420587 -11.188277 2.12374 100 0 0
-6.794343 -1.3012254 -2.2913609 100 0 0
-7.2170973 -6.3749781 -2.4715638 100 0 0
-8.3578367 -12.630555 -2.257947 100 0 0
-9.5631752 -15.299329 -0.97637367 100 0 0
-9.934968 -0.6019752 -1.0133747 100 0 0
-5.1905842 -13.207948 0.92276931 100 0 0
-9.3628397 -0.87326711 1.4722209 100 0 0
-5.8600354 -6.9483047 1.3352154 100 0 0
-5.9015617 -7.0393777 -1.7303592 100 0 0
-5.2528982 -1.0607003 0.55230516 100 0 0
-5.8739023 -15.520389 1.2828609 100 0 0
-6.2990637 -9.8127489 1.8956758 100 0 0
-5.0039062 -11.658127 1.0835452 100 0 0
-8.4085312 -5.2416368 -2.1289911 100 0 0
-5.760663 -12.437412 -1.9652685 100 0 0
-5.7537665 -0.6520108 -1.7688069 100 0 0
-6.2317019 -13.766776 2.0138152 100 0 0
-6.8231506 -4.8127594 2.2018528 100 0 0
-8.206461 -8.3745136 -2.275552 100 0 0
-7.7248096 -3.21049 2.1023638 100 0 0
-7.9478493 -9.1641302 2.3336577 100 0 0
-8.9483204 -6.424016 1.3419752 100 0 0
-5.0806727 -11.471115 0.29559699 100 0 0
-10.050711 -7.1236773 -0.99187189 100 0 0
-5.4629207 -6.3886189 -0.43808135 100 0 0
-5.2064991 -5.8520107 -0.53235132 100 0 0
-9.7008171 -1.7948126 1.7983925 100 0 0
-8.8076 -6.876461 1.9748112 100 0 0
-7.5871034 -3.0992045 -2.3454792 100 0 0
-9.1787376 -4.4151235 0.65791327 100 0 0
-8.1717739 -6.8540988 -2.2217944 100 0 0
-6.974206 -8.0579548 2.3382635 100 0 0
-5.5960541 -4.6878958 -1.6752836 100 0 0
-8.4597521 -7.3723464 2.1048889 100 0 0
-5.1832023 -17.312702 1.1017073 100 0 0
-6.6538582 -2.037127 -2.3127525 100 0 0
-9.175868 -7.8809834 -0.22833328 100 0 0
-9.5628061 -13.625131 -1.6844524 100 0 0
-6.7981133 -10.715271 2.2224121 100 0 0
-6.3230133 -7.8524771 2.1825755 100 0 0
-8.6324768 -7.8786912 -0.87504458 100 0 0
-9.8134327 -8.3290882 0.82335848 100 0 0
-5.1184874 -0.93788701 -0.43243971 100 0 0
-7.5974073 -6.7861609 2.2220604 100 0 0
-4.7465205 -4.1307588 -0.34004691 100 0 0
-5.3595548 -3.5509701 0.20661272 100 0 0
-7.3701768 -10.117743 2.3526905 100 0 0
-6.2989426 -9.2228441 -2.437537 100 0 0
-5.4127793 -15.333837 -1.3991363 100 0 0
-7.5335917 -10.082458 2.1547282 100 0 0
-5.6293473 -0.75756192 1.4530956 100 0 0
-6.6699624 -7.5239367 -2.2335329 100 0 0
-9.0381355 -1.6941359 -1.5360663 100 0 0
-8.9260616 -6.1215844 -2.0391459 100 0 0
-9.9037924 -6.6173062 -0.22442713 100 0 0
-5.4543405 -12.243143 1.5124174 100 0 0
-8.847023 -10.890907 0.9606756 100 0 0
-5.5770535 -12.486647 -1.8826116 100 0 0
-7.9378667 -3.4844999 -2.4341791 100 0 0
-7.0960646 -4.6382847 -2.331769 100 0 0
-10.015254 -14.160765 0.53442657 100 0 0
-9.6672707 -11.973966 -0.093180507 100 0 0
-5.3474464 -7.5621562 1.7183146 100 0 0
-6.8629122 -7.5905895 2.2803111 100 0 0
-5.2056875 -5.1570559 0.92620248 100 0 0
-7.6075306 -6.9646196 -2.4572682 100 0 0
-5.0005827 -13.710967 1.318903 100 0 0
-9.4211378 -8.7021704 -1.2723223 100 0 0
-5.9710727 -1.9961084 -1.7639695 100 0 0
-6.1600819 -5.5983343 1.5489799 100 0 0
-10.056375 -4.3713622 -1.2239017 100 0 0
-6.917727 -3.0202134 -2.132689 100 0 0
-6.23034 -2.8236341 2.193408 100 0 0
-7.52879 -9.1855831 -2.2277308 100 0 0
-8.8355865 -11.440606 -2.2196763 100 0 0
-4.8329034 -5.1619849 0.49510121 100 0 0
-6.8732529 -2.5103085 -2.3153119 100 0 0
-5.8462334 -14.456315 1.8214532 100 0 0
-4.530365 -14.038547 -0.27587181 100 0 0
-5.5385256 -1.4671025 1.4654055 100 0 0
-6.6671309 -6.2775059 -2.0373728 100 0 0
-7.3434172 -13.785007 2.1807811 100 0 0
-5.3800426 -2.882031 1.0179751 100 0 0
-5.3412943 -6.7148232 0.34375444 100 0 0
-7.8941483 -14.640135 -2.2430043 100 0 0
-8.9452496 -2.3236856 -2.2394114 100 0 0
-5.104403 -9.4717331 0.5503962 100 0 0
-6.8582611 -4.2596278 2.3328211 100 0 0
-4.9089437 -3.9769909 0.53719938 100 0 0
-7.5854769 -14.997218 2.1473975 100 0 0
-8.9106398 -1.0134256 -0.72834259 100 0 0
-9.775815 -10.072653 0.61492741 100 0 0
-10.267295 -3.1030447 0.66497016 100 0 0
-8.4595451 -14.901644 -2.0900626 100 0 0
-8.2769938 -9.9891758 2.037431 100 0 0
-8.6436501 -6.7986488 -0.04028498 100 0 0
-4.9687138 -6.6661735 -0.79012966 100 0 0
-7.2031331 -4.0746241 -2.2397058 100 0 0
-9.2334166 -2.8588467 -0.81413186 100 0 0
-6.5197487 -10.175431 2.1638818 100 0 0
-8.6013432 -1.8285085 -2.1521416 100 0 0
-5.8862958 -13.585522 -1.9547648 100 0 0
-7.0464725 -3.54759 2.1982048 100 0 0
-5.4022384 -5.852911 1.4251397 100 0 0
-6.6219306 -13.251649 2.109314 100 0 0
-6.171515 -11.903164 1.6960745 100 0 0
-4.7971406 -1.3929894 0.5298211 100 0 0
-7.8705392 -1.2897424 -1.8784882 100 0 0
-6.0878363 -3.7296379 1.6120921 100 0 0
-9.7045879 -12.174312 0.26480287 100 0 0
-6.5419559 -9.1309652 -2.1201022 100 0 0
-5.0018525 -6.83851 -0.55092412 100 0 0
-5.8062749 -1.8672688 1.6172731 100 0 0
-8.7175703 -12.153985 1.3142049 100 0 0
-7.0874581 -7.0022974 -2.1080277 100 0 0
-5.4432988 -9.5595798 0.14079235 100 0 0
-6.8362813 -9.4688683 -2.4719434 100 0 0
-5.3350668 -9.8969173 1.4554178 100 0 0
-6.3353386 -8.5222139 2.213675 100 0 0
-6.2985921 -16.591354 1.8842628 100 0 0
-5.8331161 -13.225685 1.515877 100 0 0
-8.0883503 -3.8563805 -1.9891452 100 0 0
-8.2986507 -12.614242 2.3919613 100 0 0
-9.8096132 -0.88243896 1.2387565 100 0 0
-8.0260849 -8.4469633 -2.2097933 100 0 0
-10.442697 -14.800093 0.070075423 100 0 0
-8.1498089 -6.2049446 2.2802956 100 0 0
-4.9465466 -1.7147303 0.53539705 100 0 0
-10.499058 -12.895869 -0.16238691 100 0 0
-7.3606448 -4.909492 2.472553 100 0 0
-10.184988 -7.3671703 0.59724927 100 0 0
-5.9084606 -10.478996 -1.9393365 100 0 0
-7.9129782 -14.388862 2.293608 100 0 0
-5.2417135 -12.569982 -0.70079935 100 0 0
-5.1065116 -5.7851119 -0.23450395 100 0 0
-9.4969063 -1.8603747 -1.062869 100 0 0
-5.589004 -10.738494 -1.9758559 100 0 0
-6.2514081 -11.090039 -2.0725482 100 0 0
-7.0220609 -3.8451731 2.2422321 100 0 0
-5.4771972 -15.046573 0.76936573 100 0 0
-5.2641764 -13.608605 -1.7347434 100 0 0
-9.9119606 -12.019911 0.18298349 100 0 0
-6.5051231 -10.653041 -2.1365154 100 0 0
-5.350194 -5.1597013 0.78328466 100 0 0
-10.52597 -10.475454 -0.76609403 100 0 0
-5.4270997 -2.5576708 1.1740978 100 0 0
-8.2284307 -0.76810914 -2.099463 100 0 0
-5.6249499 -3.5434783 1.3519824 100 0 0
-9.2388353 -12.224257 0.58959907 100 0 0
-5.2008877 -11.173926 -0.68685776 100 0 0
-7.6104331 -4.2987099 -2.2580802 100 0 0
-5.16572 -3.1071899 -0.87370408 100 0 0
-7.5469551 -11.765867 2.3744471 100 0 0
-5.3339305 -6.4296918 -1.5177305 100 0 0
-8.2345743 -16.018988 1.9392477 100 0 0
-7.7977562 -15.242151 2.2319112 100 0 0
-6.2038193 -15.175633 2.0741496 100 0 0
-9.764616 -7.8691602 1.9276057 100 0 0
-6.2627125 -14.09922 -2.2299447 100 0 0
-5.7692103 -14.119972 1.3464025 100 0 0
-8.7988605 -9.3276062 0.87527007 100 0 0
-7.3418093 -14.286503 2.3637612 100 0 0
-9.5977535 -9.9929419 -0.12929299 100 0 0
-9.3108158 -4.5328541 1.7044325 100 0 0
-5.7946143 -4.8720951 -1.9878399 100 0 0
-5.8060703 -8.7209406 -1.5434109 100 0 0
-5.5600858 -13.27897 1.2064041 100 0 0
-7.336844 -15.012283 2.2629249 100 0 0
-7.6893086 -1.7986609 2.1914957 100 0 0
-6.8379803 -13.543962 2.2768214 100 0 0
-8.4278326 -13.14057 2.1555502 100 0 0
-8.052309 -0.48725817 2.4957919 100 0 0
-8.8050365 -14.647916 -2.1672025 100 0 0
-8.7253027 -10.526667 2.3138244 100 0 0
-7.3751311 -3.2846363 2.2844682 100 0 0
-4.9568076 -6.4046741 0.83146405 100 0 0
-6.4629679 -5.9578786 -2.250344 100 0 0
-6.26616 -5.1940207 1.906618 100 0 0
-7.4450431 -2.6225464 2.4019995 100 0 0
-9.406558 -11.859328 0.48640758 100 0 0
-6.6863132 -12.423348 -2.323307 100 0 0
-5.1014924 -3.5154824 0.062891707 100 0 0
-4.9492779 -9.1458464 0.31410119 100 0 0
-5.4337807 -15.328882 0.9883365 100 0 0
-5.0344353 -5.8327541 0.70331311 100 0 0
-8.2070141 -3.6288726 2.1691422 100 0 0
-4.729557 -14.762983 0.66131365 100 0 0
-9.9426098 -4.1989965 -0.015333006 100 0 0
-5.2210536 -7.5491228 -0.11875866 100 0 0
-8.3491735 -9.6315794 1.8211023 100 0 0
-8.9712715 -17.45521 -1.6560475 100 0 0
-7.9301515 -7.3473778 2.1433058 100 0 0
-8.8719034 -4.9625912 -1.8832468 100 0 0
-6.2739329 -6.4191713 2.0212059 100 0 0
-7.81915 -12.095473 2.3187621 100 0 0
-8.7396393 -13.150625 -2.1123259 100 0 0
-9.4706812 -0.59339315 0.8386119 100 0 0
-9.739748 -11.944316 -0.54973567 100 0 0
-7.3460026 -14.639706 2.2486267 100 0 0
-6.6158009 -6.0173988 -1.9719149 100 0 0
-10.136223 -15.699784 0.43329936 100 0 0
-9.5074902 -5.1289716 0.30669224 100 0 0
-5.7267203 -11.380189 1.4849306 100 0 0
-4.9573145 -10.813583 0.7762534 100 0 0
-10.008026 -7.7406979 -1.2981473 100 0 0
-4.9535952 -10.043813 -0.3302719 100 0 0
-7.7051578 -11.794414 2.3630726 100 0 0
-8.6895533 -16.272799 1.8428952 100 0 0
-7.3768387 -11.871043 2.3920953 100 0 0
-8.4847145 -14.843888 1.8799407 100 0 0
-5.0660973 -14.508366 0.12829648 100 0 0
-5.6154685 -13.039622 1.203961 100 0 0
-10.197625 -10.378134 -0.88240105 100 0 0
-9.6076851 -1.0863957 0.3513951 100 0 0
-5.6445274 -11.746644 -1.3772662 100 0 0
-6.1787667 -12.536433 -1.6271957 100 0 0
-8.8619537 -2.5238822 -2.213182 100 0 0
-8.7748613 -4.7778955 1.207968 100 0 0
-9.3681307 -4.8660274 0.070452265 100 0 0
-5.3250589 -6.6011205 -0.55468661 100 0 0
-5.7617292 -6.8774362 1.9500116 100 0 0
-8.3555326 -2.8422737 -2.1817627 100 0 0
-5.8744326 -11.347547 -1.5573159 100 0 0
-10.150649 -4.7487845 0.91429436 100 0 0
-9.7901297 -9.4393234 -0.077890418 100 0 0
-7.9870763 -6.5480466 2.1917377 100 0 0
-9.3573313 -4.113688 -1.3508067 100 0 0
-6.5776801 -0.9618907 -2.3601213 100 0 0
-9.0180655 -15.312006 1.3517936 100 0 0
-7.6880755 -12.918427 -2.2821157 100 0 0
-9.2046766 -0.91102314 -0.18389562 100 0 0
-8.0237494 -12.185115 2.0045056 100 0 0
-9.2015829 -10.571463 0.059931677 100 0 0
-7.8995633 -14.753658 2.117238 100 0 0
-8.5661697 -10.163692 -1.8845826 100 0 0
-8.3250952 -5.9005537 2.3206143 100 0 0
-5.2011161 -5.5138321 0.13314492 100 0 0
-7.4903021 -5.5016494 2.350673 100 0 0
-8.1283417 -13.047545 2.1328495 100 0 0
-9.5558872 -1.9539865 0.91961884 100 0 0
-5.1256886 -15.598508 -0.28855681 100 0 0
-5.0116048 -3.4498055 -0.53924072 100 0 0
-9.4231215 -12.261032 0.6818223 100 0 0
-4.9899874 -13.775399 0.28275594 100 0 0
-6.0192595 -16.010502 1.8482149 100 0 0
-7.7862563 -10.830742 -2.4151659 100 0 0
-9.2877798 -14.458182 -1.4810245 100 0 0
-9.4366169 -8.7518768 -0.25824997 100 0 0
-6.0152483 -3.9406109 -1.9217685 100 0 0
-6.2193494 -4.1866808 1.5562476 100 0 0
-6.8935137 -12.047522 2.3385408 100 0 0
-9.9251337 -4.873981 0.90647483 100 0 0
-8.6805182 -11.851156 2.0202029 100 0 0
-6.8209925 -2.7433527 -2.1591938 100 0 0
-8.4010944 -7.1936874 2.3841264 100 0 0
-8.6216955 -8.1035948 2.167536 100 0 0
-7.1416059 -12.02329 2.218688 100 0 0
-9.4459381 -6.3647718 -1.1422272 100 0 0
-6.4290218 -11.812864 2.0308704 100 0 0
-9.1570768 -15.722734 0.77791363 100 0 0
-5.2751527 -5.3054285 0.8291021 100 0 0
-9.9824095 -1.0698165 -0.54165947 100 0 0
-5.9755282 -11.196103 2.0933344 100 0 0
-8.8240147 -15.551973 0.93186563 100 0 0
-9.81672 -3.132365 -1.4560444 100 0 0
-8.8960114 -15.348635 2.0448694 100 0 0
-5.9024057 -11.844935 -1.809711 100 0 0
-6.6158557 -11.473405 2.2051289 100 0 0
-9.4914694 -0.61154068 -1.1956403 100 0 0
-9.2868576 -4.0189028 1.7142386 100 0 0
-5.3821526 -5.7540455 -0.54132646 100 0 0
-8.945529 -5.4310498 1.7391087 100 0 0
-9.9008942 -5.9225278 -0.16005871 100 0 0
-5.9701409 -6.2339582 -1.8082826 100 0 0
-9.3276367 -0.40511301 0.48423123 100 0 0
-10.018808 -15.476962 0.79465461 100 0 0
-10.745049 -8.7349339 -0.10890826 100 0 0
-7.3490748 -11.151686 2.2016387 100 0 0
-7.0044022 -3.670831 2.1342306 100 0 0
-7.1359477 -9.0562553 2.3996098 100 0 0
-9.6092892 -7.6465411 0.50391883 100 0 0
-5.9834299 -2.5361056 1.6281655 100 0 0
-8.4860888 -14.779313 -2.0780425 100 0 0
-10.099111 -14.828909 1.0669239 100 0 0
-5.930975 -16.659405 1.8202932 100 0 0
-6.4837542 -15.094388 1.9487641 100 0 0
-7.1719089 -3.0534434 -2.2494137 100 0 0
-6.8552938 -4.5314641 2.2269893 100 0 0
-4.8306036 -1.8662591 0.82454646 100 0 0
-9.1829109 -2.0884173 0.10883737 100 0 0
-4.9342952 -5.7161927 -0.629031 100 0 0
-10.034481 -7.1046071 -0.18739277 100 0 0
-8.5358315 -12.751727 -2.027669 100 0 0
-8.0129519 -6.7111545 -2.111047 100 0 0
-5.7048569 -0.72637087 -1.8279933 100 0 0
-5.9696803 -15.112397 -1.4782128 100 0 0
-5.3819757 -0.93426096 1.0808647 100 0 0
-8.0733652 -13.970589 2.0951629 100 0 0
-8.2224493 -11.212909 -2.1057303 100 0 0
-5.9943361 -13.752712 -1.8801767 100 0 0
-6.1765714 -9.0156164 1.963528 100 0 0
-10.855987 -5.9843507 -1.5219401 100 0 0
-10.615124 -11.437419 -0.18101346 100 0 0
-9.9338102 -3.5978673 1.3844131 100 0 0
-5.638494 -14.223932 1.8908118 100 0 0
-6.4840817 -13.729613 1.9924357 100 0 0
-4.7815881 -12.401525 -0.17264315 100 0 0
-5.0627451 -9.9828272 0.77319944 100 0 0
-9.1668711 -13.974584 -1.8607191 100 0 0
-4.9087543 -1.0908071 -0.47423822 100 0 0
-7.9994469 -3.0567608 2.3391576 100 0 0
-5.000607 -8.042635 0.6776489 100 0 0
-9.4393673 -7.9243846 1.4498434 100 0 0
-5.1931281 -7.4412303 -0.34654737 100 0 0
-7.9422879 -15.354369 2.3176422 100 0 0
-8.5016413 -0.94624716 1.9621021 100 0 0
-9.3102808 -14.186167 0.96883494 100 0 0
-7.765636 -14.270287 2.1711099 100 0 0
-5.8959594 -1.8547825 1.5415194 100 0 0
-5.1146684 -2.2836626 -0.10298856 100 0 0
-9.8478537 -1.7252666 1.2442451 100 0 0
-8.1565638 -15.411189 2.0915163 100 0 0
-6.7279878 -11.534809 2.3094432 100 0 0
-6.6317792 -0.86256826 -2.2090349 100 0 0
-6.4047546 -9.3617964 -2.1932495 100 0 0
-4.9946799 -3.2937069 0.54690474 100 0 0
-8.5959492 -6.1086879 1.3965362 100 0 0
-5.3212037 -8.7399836 -0.81203651 100 0 0
-4.8333888 -11.598808 -0.13777609 100 0 0
-6.3490682 -1.7532942 2.0214739 100 0 0
-8.408823 -1.8518859 1.8933367 100 0 0
-8.0314684 -1.2156202 -2.302248 100 0 0
-7.5431557 -13.645115 -2.2852771 100 0 0
-5.2867432 -7.7470903 1.6601235 100 0 0
-6.1489053 -9.9767799 1.9882826 100 0 0
-5.0116372 -4.6957245 0.043351583 100 0 0
-5.8157082 -5.1491671 -1.7274698 100 0 0
-9.1693735 -12.265919 -1.9140745 100 0 0
-9.9792471 -1.5630524 0.17402586 100 0 0
-4.8722792 -4.13451 0.11368398 100 0 0
-6.42558 -2.4628646 2.1137393 100 0 0
-6.7110095 -13.672733 2.2711513 100 0 0
-9.1953611 -13.50581 1.7274144 100 0 0
-7.0461993 -6.4529924 -2.2778695 100 0 0
-8.5407381 -5.3201709 -1.2484815 100 0 0
-5.0447717 -4.7027669 -0.13574784 100 0 0
-8.3621511 -3.5292866 1.8821185 100 0 0
-5.0885139 -12.137899 0.88755816 100 0 0
-9.7512178 -0.46222141 0.5589115 100 0 0
-8.8260546 -14.352429 -1.5326129 100 0 0
-10.316427 -4.3269458 -1.1964067 100 0 0
-7.1571417 -13.899874 -2.2187285 100 0 0
-8.4765978 -7.2301211 1.3902241 100 0 0
-7.7102337 -8.2868032 -2.392252 100 0 0
-8.2622299 -11.09299 -2.0197227 100 0 0
-4.7483711 -11.975936 -0.18878633 100 0 0
-8.0462732 -9.362052 -2.2655957 100 0 0
-6.4992728 -1.8655366 2.2473171 100 0 0
-9.5311422 -2.7608654 -0.62953681 100 0 0
-9.0263214 -1.6572365 -1.2968538 100 0 0
-9.0364733 -11.655362 -1.1597408 100 0 0
-6.230648 -4.0067348 -2.1682875 100 0 0
-5.1427951 -9.0399065 0.61297554 100 0 0
-5.1240134 -12.754947 -0.36714709 100 0 0
-7.4472651 -12.626165 -2.4961658 100 0 0
-10.086586 -4.2914519 -0.5681234 100 0 0
-8.4024601 -14.804747 1.814459 100 0 0
-5.5095634 -10.070754 -0.014232166 100 0 0
-6.6514034 -11.217089 2.1297116 100 0 0
-8.6392813 -14.369721 2.1183388 100 0 0
-9.7868032 -6.2888546 0.37942868 100 0 0
-6.7669883 -4.6586332 -2.2621164 100 0 0
-8.859745 -3.6933591 -0.86473316 100 0 0
-5.519012 -5.3005953 1.7951502 100 0 0
-9.0209856 -12.823149 1.5805647 100 0 0
-7.2671919 -0.59679067 -2.2444525 100 0 0
-9.4020691 -13.749168 1.1398176 100 0 0
-9.3692045 -15.144926 -1.4285198 100 0 0
-8.6236382 -6.3815527 1.4856052 100 0 0
-7.4788661 -6.4229479 2.1942868 100 0 0
-6.4570708 -0.41904247 -2.0553296 100 0 0
-8.2061882 -13.026414 -2.145056 100 0 0
-10.197463 -8.7971315 -0.43633631 100 0 0
-6.6135025 -16.080442 -2.1852021 100 0 0
-6.6411877 -14.773768 2.0693843 100 0 0
-8.8328886 -7.6914124 1.513185 100 0 0
-9.0064125 -10.599382 1.0285499 100 0 0
-5.4501066 -10.48835 -0.74451107 100 0 0
-7.1125135 -12.501798 2.2929978 100 0 0
-5.7054052 -3.6413541 -1.6898781 100 0 0
-9.1786489 -3.0247948 1.3824407 100 0 0
-9.2440987 -7.5151744 1.0883412 100 0 0
-7.1664152 -13.843365 -2.303479 100 0 0
-10.004049 -6.4171081 0.94654053 100 0 0
-9.8070126 -6.5348558 0.76785582 100 0 0
-9.9088764 -10.447 -0.73446244 100 0 0
-7.9526439 -1.3383614 2.3788438 100 0 0
-4.9894161 -11.335476 -0.54263067 100 0 0
-9.3672342 -9.6134529 -1.7250804 100 0 0
-9.6218262 -13.722331 1.0251751 100 0 0
-8.2355185 -16.725452 -2.0991328 100 0 0
-5.5964828 -14.117093 -2.0535498 100 0 0
-7.5635028 -15.606831 -2.4953539 100 0 0
-5.6008606 -2.1350443 -0.72168934 100 0 0
-9.2171822 -4.0091944 -1.397248 100 0 0
-4.8379664 -14.871574 0.60866433 100 0 0
-5.1797938 -0.93036848 1.2414277 100 0 0
-6.4892964 -15.376309 1.8828931 100 0 0
-6.5686712 -11.356336 -1.8448025 100 0 0
-9.865571 -5.631711 -0.57458586 100 0 0
-9.7822638 -1.3613884 -0.03160391 100 0 0
-9.8433619 -3.7073662 -0.81737292 100 0 0
-8.4889774 -5.7677174 1.945092 100 0 0
-9.9358826 -6.8776388 1.089173 100 0 0
-10.166753 -10.49582 -0.647367 100 0 0
-5.3368239 -7.3857818 -1.4173913 100 0 0
-5.7264471 -11.943835 -1.3753532 100 0 0
-4.7087049 -3.8312044 -0.71406245 100 0 0
-4.8051052 -4.3160758 0.04767615 100 0 0
-8.2322502 -2.9611101 1.8416166 100 0 0
-7.2144661 -5.9819331 -2.4341016 100 0 0
-7.8053999 -3.0794349 -2.1875343 100 0 0
-8.0752487 -7.4021382 -2.1992092 100 0 0
-8.3044624 -2.1199036 1.6553172 100 0 0
-5.7499242 -10.287866 2.1789038 100 0 0
-9.6165466 -4.7400908 -0.65241301 100 0 0
-5.5995517 -12.079232 0.87981951 100 0 0
-5.2439685 -3.969182 -0.0039991271 100 0 0
-8.3268757 -12.797115 1.8390187 100 0 0
-8.7389164 -3.0168321 -2.1144688 100 0 0
-9.373024 -14.647004 0.73489624 100 0 0
-7.0752168 -13.2948 2.0768692 100 0 0
-6.673306 -15.22295 1.9206144 100 0 0
-7.9279561 -16.527885 -2.536335 100 0 0
-5.5382543 -13.915386 -1.1496572 100 0 0
-9.2621107 -3.6470113 1.2391034 100 0 0
-6.8597269 -11.584676 2.0108101 100 0 0
-9.795166 -5.0500727 0.57461888 100 0 0
-7.3944149 -5.9140553 2.3088322 100 0 0
-9.8833799 -1.4871086 -0.25827524 100 0 0
-8.1414976 -4.6543798 -2.2074068 100 0 0
-8.9073849 -3.2439685 1.5303916 100 0 0
-4.8746448 -8.0433273 0.92824155 100 0 0
-5.6165261 -12.355605 1.6148713 100 0 0
-5.1862588 -1.7929944 -1.0790957 100 0 0
-4.930922 -9.1558933 1.0704155 100 0 0
-9.7994461 -3.0940413 0.57580686 100 0 0
-5.1704378 -11.807497 -0.43510583 100 0 0
-8.9930773 -5.3593688 -1.1408471 100 0 0
-7.2429643 -4.6377592 2.1587958 100 0 0
-9.42694 -13.290951 0.63117141 100 0 0
-6.5642171 -1.2025123 -2.3329978 100 0 0
-5.146512 -9.3907757 0.68954647 100 0 0
-4.8411365 -14.138966 -0.50995779 100 0 0
-5.3865442 -10.698135 -1.4328474 100 0 0
-5.1348643 -1.7878418 -0.12606551 100 0 0
-6.5134578 -15.587967 -1.8712744 100 0 0
-9.4169035 -12.83637 0.86472279 100 0 0
-6.1256056 -0.95576739 -2.2328258 100 0 0
-9.1054955 -12.855868 1.8738819 100 0 0
-9.0002851 -15.317566 -2.0398223 100 0 0
-6.1100888 -5.6619143 2.0140269 100 0 0
-7.1587229 -11.115937 2.3779883 100 0 0
-4.9552956 -14.696829 -0.057746574 100 0 0
-6.1049857 -13.778488 1.6006836 100 0 0
-10.3873 -14.731998 -0.6280126 100 0 0
-8.6803226 -7.4824991 -2.0393398 100 0 0
-8.3977156 -12.881007 -2.1558664 100 0 0
-5.2211213 -10.37077 1.3832814 100 0 0
-5.8359361 -2.4580534 1.7075715 100 0 0
-8.1550274 -14.560838 1.9313079 100 0 0
-9.462616 -6.1313176 0.61688089 100 0 0
-6.4231281 -6.6677237 -2.1785259 100 0 0
-9.1749907 -7.6994467 -0.58304352 100 0 0
-7.4603114 -10.971019 -2.3305421 100 0 0
-7.2941461 -9.5159512 2.2980392 100 0 0
-7.8244472 -1.7188261 2.1337578 100 0 0
-7.9314408 -12.165123 2.4585509 100 0 0
-6.3256345 -11.997258 1.7685499 100 0 0
-9.5565567 -10.577764 0.051889785 100 0 0
-8.547965 -15.223355 -1.9201655 100 0 0
-5.1222682 -6.1116586 0.89642036 100 0 0
-10.306364 -4.1464176 -0.081986256 100 0 0
-5.1593814 -4.8747458 0.40180674 100 0 0
-8.6576519 -13.764843 -1.3054241 100 0 0
-5.6782565 -14.098239 1.1752263 100 0 0
-10.176517 -1.7486043 -0.034464028 100 0 0
-8.3552933 -4.7293243 -2.0039709 100 0 0
-5.0785265 -9.6694727 0.53822172 100 0 0
-10.609542 -1.921609 1.1718818 100 0 0
-5.8277054 -10.477854 1.700528 100 0 0
-6.278348 -6.8329005 -2.0136409 100 0 0
-7.56639 -13.129333 -2.2104704 100 0 0
-4.7644043 -16.433395 0.24595501 100 0 0
-7.9977012 -12.766469 -2.1790552 100 0 0
-6.3863368 -2.1366007 -1.6152281 100 0 0
-5.2721663 -6.4596744 1.5027684 100 0 0
-5.0423298 -11.717189 0.83727628 100 0 0
-9.4437838 -4.3591013 1.1090435 100 0 0
-8.1511278 -2.8292181 2.286835 100 0 0
-7.9870334 -8.397644 -2.235656 100 0 0
-6.6319737 -9.9323359 2.1314173 100 0 0
-5.7371716 -10.379305 1.8021437 100 0 0
-8.7394218 -13.619978 1.8014183 100 0 0
-9.7709589 -3.0373666 1.3810625 100 0 0
-5.5995216 -5.130415 -0.60071307 100 0 0
-8.0025778 -0.66309303 2.2725372 100 0 0
-7.3338017 -17.344946 -2.4188659 100 0 0
-9.6115217 -3.4048593 -0.39018813 100 0 0
-6.871922 -7.6799078 -2.3217735 100 0 0
-5.1263595 -10.782411 0.18829755 100 0 0
-5.9422836 -6.4279633 -1.8480911 100 0 0
-9.1612558 -15.038123 1.4177216 100 0 0
-5.6629744 -6.7677841 1.4462086 100 0 0
-4.957478 -4.6809096 0.87947112 100 0 0
-5.6092019 -15.284898 -2.066834 100 0 0
-10.164145 -8.476532 0.1135454 100 0 0
-9.3038826 -1.0051253 -0.65530676 100 0 0
-8.7643614 -15.914294 -1.9914699 100 0 0
-5.3993821 -0.8668021 -1.0869755 100 0 0
-8.4922667 -3.323086 -2.4236395 100 0 0
-5.8572044 -10.014467 1.5913392 100 0 0
-5.4006529 -15.529479 0.73040622 100 0 0
-7.1776738 -11.611151 2.273663 100 0 0
-9.0963755 -2.7616284 -1.744952 100 0 0
-4.9320455 -6.6330457 0.3119134 100 0 0
-6.5818434 -3.1440804 2.0596173 100 0 0
-8.1040592 -4.6229801 2.2845194 100 0 0
-8.9379635 -6.1843209 2.0627582 100 0 0
-7.3577185 -12.084741 -2.3708053 100 0 0
-5.9358649 -12.137757 -1.9115072 100 0 0
-7.5994496 -10.508113 2.363899 100 0 0
-6.991787 -5.9683561 2.2095344 100 0 0
-5.5430269 -1.4234951 -1.6230123 100 0 0
-9.0320854 -11.734058 -1.3781841 100 0 0
-7.1980324 -5.3393803 -2.4166989 100 0 0
-8.7809801 -6.8007421 2.115432 100 0 0
-9.7001963 -0.74176008 -1.7284859 100 0 0
-9.2307796 -4.9059772 1.5239606 100 0 0
-6.2990656 -7.2031965 1.6174572 100 0 0
-8.1533298 -5.2016716 -1.7675492 100 0 0
-5.1949348 -15.083675 -0.87462115 100 0 0
-5.8188457 -1.54704 -1.5856018 100 0 0
-5.9869356 -4.2024207 -1.6004999 100 0 0
-5.2195873 -13.331652 0.42965537 100 0 0
-8.8082962 -8.188302 1.1227977 100 0 0
-5.6112761 -13.732033 -1.8323475 100 0 0
-5.8031416 -5.5562224 -1.7131467 100 0 0
-5.281064 -14.007035 -0.7604813 100 0 0
-6.0791588 -12.175098 -2.1073577 100 0 0
-9.6421471 -6.3815084 1.1259631 100 0 0
-9.5606289 -9.242238 1.4264374 100 0 0
-5.2668977 -13.910241 -1.4397637 100 0 0
-5.5416102 -10.312546 -0.42395055 100 0 0
-5.7011709 -3.5857463 -1.7914343 100 0 0
-6.618216 -6.5174632 2.3027048 100 0 0
-5.337007 -9.8373756 0.12208759 100 0 0
-10.184964 -3.7212961 -0.11551212 100 0 0
-5.4728374 -3.3030102 -0.68381667 100 0 0
-8.4423351 -12.170596 -2.0646417 100 0 0
-9.8051186 -0.70470941 -0.26006484 100 0 0
-6.6273293 -6.3292642 2.012228 100 0 0
-5.520227 -13.380886 1.3980541 100 0 0
-8.2276211 -10.369487 2.167999 100 0 0
-6.5870976 -0.53200775 -2.1527569 100 0 0
-6.1491256 -14.346083 1.3411776 100 0 0
-5.3963227 -6.6324878 -0.12726736 100 0 0
-7.0224128 -1.7231927 -2.3394923 100 0 0
-6.3331389 -7.5171661 2.0061207 100 0 0
-10.066885 -15.017492 0.29173854 100 0 0
-6.2018437 -11.300014 -2.0702174 100 0 0
-6.2694449 -14.706294 -1.7893604 100 0 0
-8.7169971 -15.360414 -0.44981337 100 0 0
-7.9042916 -11.455364 -2.4818592 100 0 0
-7.7081976 -11.753695 2.0991354 100 0 0
-8.22194 -4.7566857 1.9981652 100 0 0
-6.8260617 -13.22932 2.1122565 100 0 0
-6.9118323 -7.5820537 -2.1703703 100 0 0
-5.0748744 -0.91750169 -0.82014006 100 0 0
-9.3376484 -2.6545851 -1.6140981 100 0 0
-9.1367674 -15.663913 -1.6429286 100 0 0
-9.1830759 -0.74088466 1.4127485 100 0 0
-7.7054129 -0.66623819 2.2014511 100 0 0
-7.0146956 -11.93829 2.2816675 100 0 0
-6.4162636 -4.1390252 2.0035548 100 0 0
-5.2261758 -1.4029378 -0.41266665 100 0 0
-5.7003169 -4.8461051 -1.8808397 100 0 0
-7.4331794 -7.1932392 -2.3245556 100 0 0
-7.9930334 -10.276097 1.9487989 100 0 0
-8.164073 -14.103066 2.1666222 100 0 0
-8.960247 -14.092228 -1.360901 100 0 0
-9.213006 -2.7689934 -1.8371699 100 0 0
-8.5839205 -8.9535484 -1.8966761 100 0 0
-7.3710303 -3.8099406 -2.2457588 100 0 0
-7.660037 -3.0547464 1.8683414 100 0 0
-5.784513 -6.8193545 1.0910958 100 0 0
-6.6584916 -2.4346848 1.9465132 100 0 0
-10.045164 -13.274009 -0.83944196 100 0 0
-5.245945 -6.9305506 0.85634744 100 0 0
-6.0328341 -10.911226 -1.9813863 100 0 0
-9.2955818 -3.9546483 0.92363638 100 0 0
-8.9513817 -3.7279618 -1.342689 100 0 0
-5.9687867 -3.8390207 2.1891007 100 0 0
-6.7345324 -9.2852345 -2.1785533 100 0 0
-5.5719738 -4.1715469 1.136379 100 0 0
-9.2679996 -15.429149 1.4898767 100 0 0
-4.932806 -5.8249435 0.30440685 100 0 0
-7.3379316 -8.8564558 2.333509 100 0 0
-7.8755355 -4.1134834 -2.437324 100 0 0
-9.6995869 -2.9234669 -1.0512571 100 0 0
-8.5877314 -11.053631 2.0881746 100 0 0
-8.327096 -7.9606881 -1.5306871 100 0 0
-5.8164043 -14.47803 -1.9030942 100 0 0
-9.4240189 -0.66135281 2.0804262 100 0 0
-7.6332941 -7.6591244 2.2230217 100 0 0
-5.60638 -11.858739 -1.7621472 100 0 0
-5.6670728 -2.2656474 1.0128887 100 0 0
-7.4561081 -8.3890142 -2.2506657 100 0 0
-8.8392944 -11.370188 -1.9640943 100 0 0
-5.5687637 -7.6308317 1.11708 100 0 0
-9.1943827 -2.6182358 2.0626378 100 0 0
-5.0267835 -5.7001643 0.36206901 100 0 0
-6.9005527 -11.210409 -2.3461726 100 0 0
-7.4641747 -14.929801 2.3434777 100 0 0
-8.2908573 -12.167802 2.1525402 100 0 0
-6.4192162 -4.6227326 2.1584609 100 0 0
-5.027885 -2.6992445 0.25509092 100 0 0
-5.3168755 -2.6583433 -0.67913586 100 0 0
-10.188843 -11.493022 -0.96337748 100 0 0
-5.38831 -0.59783852 -1.5509137 100 0 0
-6.657546 -7.0589042 -2.1928306 100 0 0
-7.6213078 -4.305892 -2.5998111 100 0 0
-8.9188967 -0.81307018 1.9592687 100 0 0
-8.8723555 -12.416661 -2.4174118 100 0 0
-6.7066731 -4.08218 -2.2520273 100 0 0
-9.616334 -9.8988791 -0.29771802 100 0 0
-8.6746578 -9.4452896 1.7386814 100 0 0
-8.070797 -10.178401 2.1704578 100 0 0
-9.1782227 -3.6880128 -1.4586077 100 0 0
-4.8314581 -13.541142 -0.40808308 100 0 0
-5.1073089 -1.6300536 -0.23937266 100 0 0
-5.2647667 -4.3539867 -0.30512819 100 0 0
-9.4146671 -11.065296 -1.0574465 100 0 0
-9.7508116 -11.48262 -1.5105571 100 0 0
-9.5114441 -9.6245165 1.0042403 100 0 0
-7.5387859 -15.782777 2.3002527 100 0 0
-5.0322194 -8.1965818 0.60728312 100 0 0
-7.4994407 -6.164341 -2.407161 100 0 0
-7.3805656 -12.077258 2.2826164 100 0 0
-5.1339617 -9.644289 0.90701705 100 0 0
-9.1585045 -5.0020165 1.6761035 100 0 0
-9.7302475 -11.957061 0.018535638 100 0 0
-9.6621351 -10.413558 0.62204599 100 0 0
-5.0495405 -12.51594 0.40552479 100 0 0
-9.1874275 -14.803548 -0.10635662 100 0 0
-6.6630049 -4.9103713 2.1146896 100 0 0
-7.4843082 -0.74287701 2.2590358 100 0 0
-7.2349386 -5.159193 -2.2369721 100 0 0
-8.4549618 -2.3459909 -1.4387082 100 0 0
-8.6502819 -11.361719 1.230329 100 0 0
-4.8947387 -8.0895357 0.3744269 100 0 0
-8.0956745 -4.1353159 2.3043327 100 0 0
-5.2366657 -13.412897 -0.53399086 100 0 0
-9.0692835 -6.0599384 1.492574 100 0 0
-8.5642853 -5.9559903 2.2476425 100 0 0
-9.9084282 -16.031332 0.12865074 100 0 0
-9.743475 -13.428884 0.74845058 100 0 0
-8.8364058 -11.189363 -0.55265856 100 0 0
-5.8009081 -6.0433826 1.2039956 100 0 0
-7.4431553 -10.889961 -2.3196754 100 0 0
-8.5631618 -2.0191503 1.7161865 100 0 0
-5.1900306 -12.532581 0.7009117 100 0 0
-6.2107983 -4.8105559 -2.3834982 100 0 0
-5.1820168 -10.079363 0.57976317 100 0 0
-9.0745726 -9.7814846 -0.52568382 100 0 0
-7.9269543 -7.4324617 -1.8219988 100 0 0
-7.609252 -15.49197 -2.0362058 100 0 0
-8.1268148 -1.432214 -2.1013393 100 0 0
-9.9530802 -7.9266801 1.1299459 100 0 0
-5.7268877 -4.265594 1.1948794 100 0 0
-7.1922259 -0.9092868 -2.378819 100 0 0
-4.9954567 -12.309712 -1.3375427 100 0 0
-5.2833891 -10.016188 -1.1765186 100 0 0
-7.3122988 -8.7720346 2.1722095 100 0 0
-4.878706 -10.566857 -0.065619536 100 0 0
-10.427458 -14.166149 -1.4645033 100 0 0
-7.9150243 -12.430521 1.9395049 100 0 0
-8.1676168 -10.821261 2.3927271 100 0 0
-9.9783497 -11.159372 1.1861465 100 0 0
-6.605639 -9.0280361 2.3385506 100 0 0
-6.0626616 -11.339248 1.9075127 100 0 0
-6.5852757 -13.829496 2.2865238 100 0 0
-7.8253412 -14.642664 -2.4511807 100 0 0
-9.909235 -3.2248945 -0.957165 100 0 0
-6.7603326 -11.381312 2.2893867 100 0 0
-5.3385153 -16.152653 -0.98818189 100 0 0
-6.6868401 -7.3590679 2.2093458 100 0 0
-8.3515968 -6.369349 -0.30350268 100 0 0
-8.6188612 -13.516931 2.0199268 100 0 0
-7.3914967 -13.623812 -2.1397212 100 0 0
-9.5278397 -13.361081 -1.3396193 100 0 0
-5.4155784 -10.911942 0.81438982 100 0 0
-7.1587853 -11.343345 2.1174736 100 0 0
-5.0027685 -14.815805 0.31033725 100 0 0
-7.9815063 -12.553902 2.3433728 100 0 0
-9.058691 -14.013768 -2.2532222 100 0 0
-6.3909497 -13.314484 -2.2170289 100 0 0
-8.9773359 -9.5110521 2.0922248 100 0 0
-4.961071 -2.0499253 0.13371114 100 0 0
-7.3603206 -16.1047 2.3219254 100 0 0
-5.4456782 -9.6434002 1.0989836 100 0 0
-8.808568 -10.955697 1.8746657 100 0 0
-4.9243331 -5.0278716 -0.82626337 100 0 0
-7.5178857 -13.149955 -2.2728436 100 0 0
-5.2179375 -14.727485 1.0701301 100 0 0
-5.4172978 -1.0891982 -1.5668811 100 0 0
-6.1355548 -11.295786 -2.3108501 100 0 0
-5.4384637 -5.0362892 1.1647025 100 0 0
-5.4299817 -8.4723034 1.1266024 100 0 0
-7.8505373 -6.6296515 2.2948563 100 0 0
-9.287981 -0.80503732 -1.617094 100 0 0
-9.315958 -5.7753277 -0.62434733 100 0 0
-5.7023702 -9.7576017 1.7929564 100 0 0
-5.2374239 -6.3736606 1.3565025 100 0 0
-4.6971879 -7.6228313 -0.0042707967 100 0 0
-4.8547783 -7.6140189 0.77626151 100 0 0
-6.7007885 -5.752337 2.3067572 100 0 0
-8.1526594 -14.186156 -2.0845714 100 0 0
-4.7697954 -6.5428748 0.05916559 100 0 0
-9.4681387 -8.2474499 -0.16105224 100 0 0
-5.2077127 -3.0701454 -0.27627608 100 0 0
-4.7408576 -8.7113848 0.43425071 100 0 0
-8.1927385 -6.4865499 -2.0752399 100 0 0
-7.8584843 -0.46175689 2.3517292 100 0 0
-7.2849917 -2.2678366 -2.105592 100 0 0
-9.3181973 -1.9197464 -0.49042982 100 0 0
-6.7068791 -1.772387 2.2521558 100 0 0
-10.136721 -13.880709 -1.2326717 100 0 0
-5.1514153 -13.369397 0.40919587 100 0 0
-8.9688244 -12.063375 -0.69273496 100 0 0
-8.6562424 -5.5658488 1.7829003 100 0 0
-9.3870869 -1.9414848 -0.65485615 100 0 0
-10.007943 -13.591278 0.40097499 100 0 0
-5.0492706 -11.671225 0.69876695 100 0 0
-5.4368606 -15.038671 0.72337425 100 0 0
-10.349415 -8.9578495 -1.0251188 100 0 0
-9.5443611 -15.159187 0.2107041 100 0 0
-9.5025911 -5.8054605 -1.2342154 100 0 0
-4.9134288 -11.018541 -0.58701199 100 0 0
-8.5719976 -11.306152 -2.1245008 100 0 0
-5.2944517 -10.368398 -0.77932525 100 0 0
-8.5435076 -3.7310748 1.6181831 100 0 0
-9.8746748 -4.3125291 -0.24903376 100 0 0
-9.6615887 -8.8215227 0.16010705 100 0 0
-9.0699959 -9.7096014 1.2312521 100 0 0
-7.3530617 -5.9850364 2.2020986 100 0 0
-6.0454378 -10.045898 1.4233875 100 0 0
-6.5342746 -2.2322154 2.1171563 100 0 0
-5.9435754 -9.6062107 1.9680789 100 0 0
-5.8160181 -12.033809 1.1083221 100 0 0
-10.171642 -2.1911161 1.0096524 100 0 0
-6.4382997 -15.769144 2.2940795 100 0 0
-9.8062897 -6.7058768 1.1708978 100 0 0
-7.4311924 -3.9105403 -2.5126045 100 0 0
-9.7401161 -8.2162352 -0.62682438 100 0 0
-9.9295425 -7.3586044 -0.18269759 100 0 0
-6.5379882 -4.3694682 2.1135345 100 0 0
-7.0097713 -12.383471 -2.3188312 100 0 0
-5.3159623 -12.842276 -0.79611003 100 0 0
-8.5250893 -5.9518318 -1.8324635 100 0 0
-8.7622375 -4.3399935 0.83914226 100 0 0
-8.5444298 -1.8368524 -2.3228881 100 0 0
-5.2948604 -5.8078279 -0.92591435 100 0 0
-8.6228657 -9.5328321 -2.1818547 100 0 0
-5.278749 -2.2400854 -1.3814092 100 0 0
-7.6638703 -16.041275 -2.4170539 100 0 0
-7.9720373 -3.755393 -2.1298957 100 0 0
-6.8118911 -1.8809267 2.2086041 100 0 0
-5.4100342 -10.383368 0.90938425 100 0 0
-5.2197623 -11.174513 0.25027007 100 0 0
-6.2279134 -7.9413633 -2.1288929 100 0 0
-8.7826338 -2.9105811 0.99493533 100 0 0
-6.5469127 -10.793368 2.2365954 100 0 0
-9.0166874 -1.1743401 -1.9465959 100 0 0
-8.1177464 -6.9590564 2.1647363 100 0 0
-9.9554701 -1.8749087 -0.48200598 100 0 0
-9.8771858 -2.7992249 -1.2180115 100 0 0
-9.6648064 -8.6992283 -1.2362379 100 0 0
-8.4066076 -10.721433 -2.1045475 100 0 0
-5.038744 -7.4392734 0.85048491 100 0 0
-6.7110567 -12.673587 -1.988369 100 0 0
-9.5558004 -8.1738567 1.7875112 100 0 0
-5.4049654 -5.565094 -1.6731936 100 0 0
-6.5050459 -13.022654 -2.1883955 100 0 0
-5.7909789 -5.7423344 -1.6363983 100 0 0
-8.666399 -6.0112791 -1.905893 100 0 0
-9.4011002 -4.6941595 -1.7218659 100 0 0
-4.9387178 -8.633996 -0.065811135 100 0 0
-9.299819 -13.064238 -1.169155 100 0 0
-7.5796347 -1.2678077 2.0637119 100 0 0
-5.9773421 -15.145555 -1.9458123 100 0 0
-8.7360258 -6.3844428 -1.40881 100 0 0
-8.2380524 -15.553812 2.0538173 100 0 0
-5.5626736 -1.9318639 -1.9074153 100 0 0
-5.2777891 -0.76904994 -1.2218101 100 0 0
-9.2461958 -3.1414232 1.1443688 100 0 0
-5.7524076 -1.5730653 1.1754888 100 0 0
-9.4341908 -12.377076 -1.3037176 100 0 0
-6.3659039 -3.0233631 2.2590168 100 0 0
-5.1959076 -1.1073431 -0.033669449 100 0 0
-5.1802654 -14.343914 -0.28160673 100 0 0
-4.6988339 -7.4423828 -0.25798839 100 0 0
-9.2797403 -8.3458843 0.73108917 100 0 0
-8.93608 -7.0381708 -0.6766181 100 0 0
-5.0760827 -6.0574255 -0.37355843 100 0 0
-5.2764783 -10.847947 0.41335282 100 0 0
-7.1228538 -0.45440722 2.4151583 100 0 0
-7.3966422 -1.7734932 2.0618083 100 0 0
-9.5206795 -5.8290963 -0.69337016 100 0 0
-6.0050716 -10.512545 -1.8420972 100 0 0
-7.3288722 -5.2058558 2.4452848 100 0 0
-8.59272 -16.957867 -0.86504823 100 0 0
-5.8668957 -11.513345 1.5108184 100 0 0
-6.2935529 -3.1389799 -2.0543063 100 0 0
-9.8945513 -7.7413273 0.91095388 100 0 0
-5.5542598 -5.7697215 -1.6228185 100 0 0
-6.7993526 -1.1853144 -2.040997 100 0 0
-5.600996 -12.886506 -1.9499122 100 0 0
-5.2524099 -8.6879711 -0.34686041 100 0 0
-6.9055591 -7.4174147 -2.3630974 100 0 0
-9.4946346 -2.8045115 -1.2571524 100 0 0
-6.3656464 -12.857157 2.1239719 100 0 0
-7.2834024 -4.5397687 2.3070574 100 0 0
-4.9655418 -13.377047 0.64691472 100 0 0
-8.7636385 -10.916187 1.3142709 100 0 0
-6.7422452 -5.3606911 2.3733668 100 0 0
-5.6983633 -9.1547413 -1.2149997 100 0 0
-9.504117 -10.91229 -1.4129493 100 0 0
-6.241394 -8.5032377 -2.0906692 100 0 0
-6.5049772 -3.7013152 -2.1448262 100 0 0
