# .PCD v0.7 - Point Cloud Data file format
VERSION 0.7
FIELDS x y z rgb
SIZE 4 4 4 4
TYPE F F F F
COUNT 1 1 1 1
WIDTH 1015
HEIGHT 1
VIEWPOINT 0 0 0 1 0 0 0
POINTS 1015
DATA ascii
-11.12794 -3.3518503 -0.9737646 9.1835496e-39
-12.116786 -7.8529429 -0.97699267 9.1835496e-39
-11.034686 -9.0163193 -0.85850519 9.1835496e-39
-10.540539 -4.1042013 -0.99663275 9.1835496e-39
-11.973161 -9.6567669 0.38910231 9.1835496e-39
-12.219996 -5.3617058 0.053513899 9.1835496e-39
-10.049722 -5.9705944 -0.4992151 9.1835496e-39
-12.624171 -3.6022682 -0.16801293 9.1835496e-39
-10.123031 -10.43852 -0.90555453 9.1835496e-39
-12.170085 -5.2244406 -1.0104845 9.1835496e-39
-10.234023 -4.9416084 0.97039431 9.1835496e-39
-11.537239 -8.1820498 0.64011556 9.1835496e-39
-9.9180899 -5.7266374 0.83716953 9.1835496e-39
-10.760829 -1.9825683 -0.81155121 9.1835496e-39
-10.363724 -4.1240811 0.73107785 9.1835496e-39
-10.753718 -8.5721607 -0.86149436 9.1835496e-39
-11.134361 -5.1615462 -1.0103335 9.1835496e-39
-10.69018 -5.2127409 0.83808142 9.1835496e-39
-12.623256 -9.5370903 -0.26986015 9.1835496e-39
-11.463778 -12.404844 -0.9247219 9.1835496e-39
-10.946127 -4.0717831 0.94478452 9.1835496e-39
-9.4325151 -8.6309414 0.41039097 9.1835496e-39
-11.296497 -2.365819 -0.91387874 9.1835496e-39
-11.198915 -5.9743419 0.70490223 9.1835496e-39
-12.090653 -7.6214671 0.57644331 9.1835496e-39
-11.176435 -10.069324 0.67349118 9.1835496e-39
-10.735081 -10.417699 -0.58081788 9.1835496e-39
-11.273631 -3.2249451 -0.97188324 9.1835496e-39
-11.565304 -6.8181953 -0.8985709 9.1835496e-39
-9.7234316 -9.1328735 0.9282105 9.1835496e-39
-10.574129 -5.4570799 0.98482347 9.1835496e-39
-11.8721 -7.8479505 -0.46687299 9.1835496e-39
-11.197175 -10.969699 -0.359548 9.1835496e-39
-10.035631 -2.6142089 -0.045890212 9.1835496e-39
-12.934113 -8.8125458 -0.46954909 9.1835496e-39
-9.8821707 -3.9275253 0.40217394 9.1835496e-39
-10.880637 -10.886806 -0.0050307922 9.1835496e-39
-11.472599 -9.1015482 0.98784006 9.1835496e-39
-11.812592 -6.1872911 0.24673136 9.1835496e-39
-11.815949 -11.371902 0.90722209 9.1835496e-39
-10.956147 -3.3661571 -0.79535365 9.1835496e-39
-12.245173 -8.6957664 -0.34870949 9.1835496e-39
-12.098864 -6.5209785 -0.0026313078 9.1835496e-39
-12.372128 -9.3891459 -0.60113996 9.1835496e-39
-10.731046 -7.4188952 -1.047953 9.1835496e-39
-9.8509121 -9.7987642 0.1176552 9.1835496e-39
-12.25887 -9.1821918 0.90916222 9.1835496e-39
-11.667536 -4.219986 0.43222639 9.1835496e-39
-11.107343 -3.4771767 -0.99552453 9.1835496e-39
-12.296853 -2.1534865 -0.87294561 9.1835496e-39
-9.5199604 -2.195519 0.19107826 9.1835496e-39
-9.7568684 -8.2643681 -0.45687702 9.1835496e-39
-11.695432 -6.6846328 0.40972042 9.1835496e-39
-11.197215 -2.6858537 0.98764926 9.1835496e-39
-10.910939 -9.3423643 -0.80465585 9.1835496e-39
-9.7875767 -6.805644 0.81751585 9.1835496e-39
-9.970994 -6.4847112 0.53209013 9.1835496e-39
-12.312483 -8.1256485 0.65081817 9.1835496e-39
-10.859681 -10.20077 -1.0810636 9.1835496e-39
-9.8542986 -7.2383771 -0.42067048 9.1835496e-39
-10.098624 -8.6050749 0.022560507 9.1835496e-39
-10.870913 -4.1505466 0.95050049 9.1835496e-39
-10.329517 -10.599942 0.3936761 9.1835496e-39
-12.227068 -2.9825099 -0.48916101 9.1835496e-39
-11.626609 -3.4754183 -1.0367057 9.1835496e-39
-9.3103447 -4.8262682 0.2440502 9.1835496e-39
-11.538853 -2.6292603 -0.80126315 9.1835496e-39
-11.78034 -6.0478287 0.13714176 9.1835496e-39
-11.323482 -4.8340316 -0.72259539 9.1835496e-39
-11.542624 -9.5328665 0.89080524 9.1835496e-39
-9.8974991 -8.4048443 0.50149524 9.1835496e-39
-10.948112 -8.7568913 -0.89594638 9.1835496e-39
-10.649689 -6.9049649 0.58075941 9.1835496e-39
-12.936631 -3.6776185 0.60717779 9.1835496e-39
-11.243506 -4.9637322 0.95022529 9.1835496e-39
-11.076497 -3.8753502 -0.73221868 9.1835496e-39
-11.78445 -4.585721 0.91985917 9.1835496e-39
-10.372567 -4.9849877 -1.0280657 9.1835496e-39
-10.3699 -6.2114902 1.0429158 9.1835496e-39
-11.751276 -3.6689725 -0.46133474 9.1835496e-39
-11.402697 -2.4116578 0.70661211 9.1835496e-39
-10.284191 -2.9655125 -1.1316859 9.1835496e-39
-11.916224 -3.3858824 -0.0036263179 9.1835496e-39
-10.98945 -7.9672723 0.91241658 9.1835496e-39
-9.6685228 -11.44344 -0.69088238 9.1835496e-39
-11.448534 -8.6641159 0.75718182 9.1835496e-39
-11.739859 -1.8183908 -1.0369751 9.1835496e-39
-10.170538 -8.0652647 0.041856129 9.1835496e-39
-11.699764 -9.0537729 -0.84394717 9.1835496e-39
-12.390388 -8.2806053 0.35854605 9.1835496e-39
-11.675395 -9.5120955 0.92189646 9.1835496e-39
-11.152519 -9.9592514 1.0344 9.1835496e-39
-11.924129 -10.95867 0.096894182 9.1835496e-39
-10.033645 -10.293752 0.25460938 9.1835496e-39
-11.82018 -2.6685021 -0.053784866 9.1835496e-39
-12.621348 -7.7193022 -0.56298256 9.1835496e-39
-11.456694 -2.2880619 0.91905522 9.1835496e-39
-11.56785 -3.4629328 0.87052613 9.1835496e-39
-10.896339 -10.401319 0.77841628 9.1835496e-39
-12.020446 -7.4498649 -0.45698529 9.1835496e-39
-9.3800764 -4.3505487 -0.39721784 9.1835496e-39
-11.799307 -11.590138 0.74619013 9.1835496e-39
-12.046107 -11.771702 -0.62860668 9.1835496e-39
-10.94714 -2.9028466 -0.99375123 9.1835496e-39
-12.119193 -7.5799828 0.98413122 9.1835496e-39
-11.68576 -3.513495 0.26480618 9.1835496e-39
-10.022921 -6.3182931 -0.28833485 9.1835496e-39
-10.573671 -4.4036636 0.73022509 9.1835496e-39
-11.916173 -9.0919075 -0.84009469 9.1835496e-39
-11.091715 -9.9219561 -0.96107626 9.1835496e-39
-10.098717 -6.8656673 0.89034158 9.1835496e-39
-9.6916876 -2.6243126 0.37851495 9.1835496e-39
-11.679749 -9.475997 1.1120318 9.1835496e-39
-12.27772 -8.2226238 0.98965031 9.1835496e-39
-10.487468 -11.872625 0.90863377 9.1835496e-39
-10.545894 -11.23268 -0.58977008 9.1835496e-39
-10.734282 -9.7480907 -0.84862971 9.1835496e-39
-11.093747 -5.7859759 -0.91217214 9.1835496e-39
-12.546044 -9.2237844 0.24970746 9.1835496e-39
-10.487973 -3.6131554 -1.0640758 9.1835496e-39
-9.6642103 -6.8241863 0.74981672 9.1835496e-39
-10.934511 -8.8972406 -0.95226187 9.1835496e-39
-9.8313284 -9.8792362 0.17528042 9.1835496e-39
-10.890664 -4.7319241 0.87904382 9.1835496e-39
-10.774137 -9.6781149 -1.0442733 9.1835496e-39
-10.888294 -9.2787428 -0.93336427 9.1835496e-39
-9.1609783 -9.8972931 0.1067785 9.1835496e-39
-10.33919 -4.9145937 -1.0663726 9.1835496e-39
-12.554637 -6.6613946 0.22320665 9.1835496e-39
-9.7149839 -10.812292 0.82414198 9.1835496e-39
-11.873342 -9.2729397 0.57405716 9.1835496e-39
-11.398406 -6.6021695 0.82898307 9.1835496e-39
-11.344127 -7.7511973 -0.89960301 9.1835496e-39
-9.4591045 -5.2614565 -0.23961116 9.1835496e-39
-11.996943 -10.056617 0.97417587 9.1835496e-39
-11.674723 -10.248631 1.0216872 9.1835496e-39
-10.222169 -10.211807 0.59411103 9.1835496e-39
-9.3637094 -8.6188593 -0.43528935 9.1835496e-39
-10.407544 -3.0189993 -0.96166861 9.1835496e-39
-12.434197 -11.321558 0.37964416 9.1835496e-39
-11.634579 -10.634161 -0.43375081 9.1835496e-39
-11.768244 -2.9891067 0.67819035 9.1835496e-39
-9.3418779 -10.14086 -0.41357544 9.1835496e-39
-12.979959 -6.6665177 -0.0060375198 9.1835496e-39
-11.299875 -12.129753 0.95119888 9.1835496e-39
-11.696846 -4.1743455 -0.32033265 9.1835496e-39
-9.3802042 -5.3726487 0.65976202 9.1835496e-39
-10.22462 -7.7605577 -0.79079622 9.1835496e-39
-11.865232 -4.9975371 0.16198584 9.1835496e-39
-12.279524 -2.2167058 0.40663135 9.1835496e-39
-12.076516 -3.852809 -0.26857153 9.1835496e-39
-10.108284 -6.8889952 -0.62568307 9.1835496e-39
-10.659377 -5.0785198 1.0717423 9.1835496e-39
-10.711721 -2.2043676 -1.0177842 9.1835496e-39
-11.704296 -9.9977427 -0.67357069 9.1835496e-39
-11.457063 -10.252096 -0.68557036 9.1835496e-39
-12.203228 -4.4006281 -0.0080745267 9.1835496e-39
-12.5792 -12.41112 0.96295649 9.1835496e-39
-10.763725 -4.7720981 -0.75060225 9.1835496e-39
-12.001145 -7.2526317 -0.73352534 9.1835496e-39
-10.471916 -3.3795166 -0.89321434 9.1835496e-39
-12.427414 -7.9368005 0.079110749 9.1835496e-39
-10.014599 -5.2004685 1.0129218 9.1835496e-39
-11.592292 -9.5766087 -0.84824377 9.1835496e-39
-9.2878647 -11.308174 -1.0508851 9.1835496e-39
-10.481718 -5.3636661 0.13948074 9.1835496e-39
-10.812889 -3.9945374 -0.0063085062 9.1835496e-39
-10.94082 -6.336422 0.89761096 9.1835496e-39
-12.00887 -4.9889507 0.1078822 9.1835496e-39
-11.147066 -9.4874535 -1.0187504 9.1835496e-39
-12.06183 -6.5672045 -0.46066818 9.1835496e-39
-11.30235 -4.3546762 -0.12825294 9.1835496e-39
-10.539022 -11.37289 -0.27938378 9.1835496e-39
-9.9073763 -9.6519737 -1.030073 9.1835496e-39
-11.131798 -2.838727 -0.68906248 9.1835496e-39
-11.359994 -6.0361061 -0.84473282 9.1835496e-39
-12.508304 -6.9180064 0.086655788 9.1835496e-39
-10.880253 -7.7549129 1.0310411 9.1835496e-39
-10.695662 -4.459363 -1.1705226 9.1835496e-39
-12.111588 -5.7928772 0.0058264164 9.1835496e-39
-9.2927856 -3.3269491 -0.57601333 9.1835496e-39
-11.386085 -6.0355277 -0.31936374 9.1835496e-39
-11.909871 -7.4727755 0.89223385 9.1835496e-39
-11.503586 -6.6683326 0.2867386 9.1835496e-39
-9.3674383 -9.2646122 -1.0377853 9.1835496e-39
-9.4982777 -8.1352396 -0.13651422 9.1835496e-39
-12.510484 -4.2044749 -0.41327667 9.1835496e-39
-10.221335 -3.7688794 0.3452414 9.1835496e-39
-10.442842 -3.6095405 -0.96686989 9.1835496e-39
-12.041882 -6.6537242 -0.82537764 9.1835496e-39
-10.599337 -1.9170977 0.9451071 9.1835496e-39
-10.696211 -8.4177952 0.93996549 9.1835496e-39
-9.2633162 -9.3146658 0.31098771 9.1835496e-39
-9.8743925 -10.15685 0.055905338 9.1835496e-39
-11.107176 -11.376509 -0.9782725 9.1835496e-39
-10.043552 -5.7195754 -0.42378363 9.1835496e-39
-10.858826 -2.1440837 -0.9659164 9.1835496e-39
-12.914025 -7.9265561 -0.80615079 9.1835496e-39
-10.170758 -5.2109666 -0.60058534 9.1835496e-39
-9.6186228 -9.7966385 0.44143689 9.1835496e-39
-10.553158 -2.0665748 -0.6592105 9.1835496e-39
-10.986281 -4.0808449 -0.58086866 9.1835496e-39
-11.344434 -8.4481926 -0.95483679 9.1835496e-39
-9.8899517 -5.4360714 0.65958118 9.1835496e-39
-9.8334532 -11.752522 0.38649684 9.1835496e-39
-10.140827 -11.701653 0.65719461 9.1835496e-39
-10.770148 -4.5069366 -0.62277067 9.1835496e-39
-9.4801083 -8.6318598 -0.48432618 9.1835496e-39
-13.136744 -9.5713234 0.47953868 9.1835496e-39
-10.426916 -6.4043474 0.92677605 9.1835496e-39
-12.754076 -6.1137161 -0.60444689 9.1835496e-39
-12.54576 -9.8511534 -0.93034649 9.1835496e-39
-9.6844788 -7.1026721 -0.46774125 9.1835496e-39
-12.443385 -12.314278 -0.89013183 9.1835496e-39
-11.358543 -5.716136 0.92406303 9.1835496e-39
-10.948001 -3.8911536 -1.0060537 9.1835496e-39
-9.3173561 -10.493829 -0.96140009 9.1835496e-39
-9.9179258 -4.7566185 1.0541134 9.1835496e-39
-10.077926 -8.2259245 -0.092490256 9.1835496e-39
-11.07009 -4.2836275 -0.77898496 9.1835496e-39
-13.019976 -8.8513813 0.055079654 9.1835496e-39
-8.8760061 -6.8934751 0.46717191 9.1835496e-39
-11.635383 -5.7247725 -1.011536 9.1835496e-39
-11.759368 -5.3712192 -0.91431439 9.1835496e-39
-11.925836 -8.6400223 -1.0627882 9.1835496e-39
-10.853406 -11.276573 -1.1103209 9.1835496e-39
-11.339743 -2.6458387 -0.079120986 9.1835496e-39
-10.712576 -7.6050267 -0.66195565 9.1835496e-39
-11.940558 -4.4558883 0.2549628 9.1835496e-39
-9.6645594 -3.9162185 0.75428146 9.1835496e-39
-10.206422 -10.139407 -0.11090232 9.1835496e-39
-9.5698366 -6.4139495 -0.67170697 9.1835496e-39
-11.159981 -9.3253078 -1.0776701 9.1835496e-39
-10.768556 -7.5014238 0.87930423 9.1835496e-39
-11.524726 -5.1295834 -0.76009107 9.1835496e-39
-10.793337 -10.020126 -0.96931338 9.1835496e-39
-10.478567 -9.982336 -0.71185338 9.1835496e-39
-9.1451197 -10.567679 -1.0058239 9.1835496e-39
-13.122538 -7.9759054 -0.18859307 9.1835496e-39
-12.805762 -5.909811 0.48912311 9.1835496e-39
-11.035958 -8.4914799 -0.97285926 9.1835496e-39
-9.8646822 -3.1698923 -0.91547179 9.1835496e-39
-12.058826 -6.8774195 -0.712102 9.1835496e-39
-10.339077 -6.6253452 -0.42533463 9.1835496e-39
-11.607263 -7.5940275 0.37524253 9.1835496e-39
-12.43465 -11.373762 0.42213106 9.1835496e-39
-10.636642 -9.7778244 -0.82467639 9.1835496e-39
-9.9832239 -3.6268389 -0.88224041 9.1835496e-39
-11.148297 -8.8766794 0.81265497 9.1835496e-39
-9.4747305 -8.9677858 0.67663747 9.1835496e-39
-10.676158 -9.7703619 -0.026842065 9.1835496e-39
-11.258101 -5.0384717 0.16076091 9.1835496e-39
-10.990589 -4.9824839 -0.83214456 9.1835496e-39
-11.130027 -11.499225 1.0198634 9.1835496e-39
-10.834817 -4.4381299 0.19349997 9.1835496e-39
-11.718278 -3.5505536 -0.93867481 9.1835496e-39
-10.699737 -2.6979265 -0.82984537 9.1835496e-39
-10.635241 -8.533555 0.90639561 9.1835496e-39
-11.764809 -4.6214638 0.11997854 9.1835496e-39
-10.985264 -5.4094534 1.0720806 9.1835496e-39
-11.544786 -7.6418037 -0.36733696 9.1835496e-39
-13.040381 -3.9459968 0.25693008 9.1835496e-39
-10.543505 -5.4183369 -0.96805674 9.1835496e-39
-11.297714 -10.029012 0.70765769 9.1835496e-39
-13.157397 -11.16486 0.045081701 9.1835496e-39
-10.740666 -6.1807652 -1.1328305 9.1835496e-39
-9.5278025 -9.6705647 -0.029975045 9.1835496e-39
-9.1600552 -6.0644312 0.30208093 9.1835496e-39
-11.889648 -8.0148497 -1.1891156 9.1835496e-39
-11.648818 -4.9177256 -0.85617435 9.1835496e-39
-10.284067 -2.6734943 0.85011876 9.1835496e-39
-9.8628902 -4.1864648 -0.69324666 9.1835496e-39
-11.443636 -9.5714951 -1.0881236 9.1835496e-39
-11.800449 -6.6328149 0.96297586 9.1835496e-39
-12.728949 -5.1574283 -0.027239816 9.1835496e-39
-11.717781 -10.8565 -1.0264332 9.1835496e-39
-11.832975 -4.9754214 -0.83529449 9.1835496e-39
-11.699244 -3.4666688 -0.69670695 9.1835496e-39
-10.692799 -8.7472401 -0.6113714 9.1835496e-39
-10.245755 -3.9126911 -0.21197082 9.1835496e-39
-10.715835 -5.1561618 -0.96563846 9.1835496e-39
-10.267376 -9.7312155 0.82332289 9.1835496e-39
-11.37768 -7.905889 0.33961749 9.1835496e-39
-11.389877 -11.794306 0.93625075 9.1835496e-39
-9.3297825 -12.547289 0.70197916 9.1835496e-39
-11.309949 -6.5620432 -0.9232024 9.1835496e-39
-10.202421 -7.7548628 0.72523832 9.1835496e-39
-9.6902628 -9.4355793 -0.85757667 9.1835496e-39
-11.492679 -3.9602835 1.0040013 9.1835496e-39
-10.669203 -7.8672009 -0.81951094 9.1835496e-39
-10.957443 -2.0139565 -0.99426544 9.1835496e-39
-10.133229 -4.5377245 -0.95873833 9.1835496e-39
-11.02683 -3.2333114 -0.47284561 9.1835496e-39
-11.812908 -8.2153406 0.70699286 9.1835496e-39
-12.167111 -6.4424505 0.60115981 9.1835496e-39
-12.268694 -4.187294 0.03541036 9.1835496e-39
-11.571683 -5.9919124 0.46905753 9.1835496e-39
-10.090936 -5.2765188 0.95592237 9.1835496e-39
-10.673864 -8.6873074 -0.97554678 9.1835496e-39
-10.486551 -9.3283358 0.70131499 9.1835496e-39
-10.700262 -6.2175736 -0.98396027 9.1835496e-39
-11.885584 -11.757491 -1.0834745 9.1835496e-39
-10.53023 -6.8147531 0.32846034 9.1835496e-39
-11.202329 -10.170312 0.3177273 9.1835496e-39
-9.9988642 -8.1846819 0.9994306 9.1835496e-39
-10.401271 -3.406172 -1.0309391 9.1835496e-39
-9.2985802 -8.3013926 -0.23123205 9.1835496e-39
-11.70044 -7.6633935 0.23514476 9.1835496e-39
-10.974085 -4.1117754 -0.9631725 9.1835496e-39
-11.288239 -6.4936743 -1.0382882 9.1835496e-39
-10.668204 -7.4169188 -0.099103823 9.1835496e-39
-12.097004 -3.0426021 -0.51414889 9.1835496e-39
-12.482609 -12.098393 -0.60012901 9.1835496e-39
-11.642716 -10.851129 -0.057164147 9.1835496e-39
-11.055025 -8.7593069 -0.71385968 9.1835496e-39
-9.6639614 -6.112761 0.24595581 9.1835496e-39
-12.598003 -4.6036811 -0.56954205 9.1835496e-39
-10.563382 -9.5135288 0.61351675 9.1835496e-39
-10.788914 -6.4989638 0.99896616 9.1835496e-39
-12.240772 -4.4859571 -0.72900438 9.1835496e-39
-10.170551 -5.6194835 1.0221353 9.1835496e-39
-10.032265 -3.5146837 -0.71521312 9.1835496e-39
-11.182569 -3.947237 1.1406639 9.1835496e-39
-11.99115 -3.8038363 0.96318209 9.1835496e-39
-11.035747 -3.8028162 0.6242156 9.1835496e-39
-10.276221 -8.1000738 -0.38993174 9.1835496e-39
-11.059214 -10.656455 0.49307501 9.1835496e-39
-9.41012 -5.9821596 1.0525115 9.1835496e-39
-12.039901 -2.3310778 -0.88872182 9.1835496e-39
-11.965009 -5.0427322 0.43679556 9.1835496e-39
-11.232683 -8.4285612 -1.0877296 9.1835496e-39
-10.344804 -5.1032438 0.93355358 9.1835496e-39
-11.899757 -8.2640839 -0.27429053 9.1835496e-39
-10.360558 -9.2269201 -0.86086011 9.1835496e-39
-11.550692 -4.0742884 -0.4593735 9.1835496e-39
-9.9615517 -5.5892463 -0.88119072 9.1835496e-39
-10.634743 -12.365469 0.39898288 9.1835496e-39
-11.184802 -8.0853996 0.97877908 9.1835496e-39
-9.9762783 -3.8613396 -0.43494308 9.1835496e-39
-9.7861795 -9.1552896 0.64167392 9.1835496e-39
-12.421648 -11.192396 -0.20639789 9.1835496e-39
-9.4158592 -9.6146564 0.94860339 9.1835496e-39
-10.020975 -2.0816376 -0.92144769 9.1835496e-39
-12.609859 -10.448137 -0.39681071 9.1835496e-39
-11.662168 -4.720799 0.73133135 9.1835496e-39
-11.860615 -2.0957265 -0.97690451 9.1835496e-39
-11.739331 -9.6946306 -0.73935318 9.1835496e-39
-11.9868 -3.8188243 -0.91240036 9.1835496e-39
-11.587799 -3.5190718 1.0313181 9.1835496e-39
-11.831621 -9.7226753 -1.0431681 9.1835496e-39
-11.544383 -6.3584232 -0.87626839 9.1835496e-39
-11.018591 -7.2749124 0.95943576 9.1835496e-39
-11.622228 -7.7818017 -0.24959624 9.1835496e-39
-11.770765 -2.0715344 -0.50035155 9.1835496e-39
-10.135652 -10.751501 -1.0000871 9.1835496e-39
-11.096153 -11.297086 -0.57469815 9.1835496e-39
-10.007434 -7.3068528 -0.69247824 9.1835496e-39
-10.55619 -4.6666207 0.70761275 9.1835496e-39
-12.405243 -3.932363 -0.22986694 9.1835496e-39
-10.810683 -5.0490384 -1.037192 9.1835496e-39
-11.065802 -2.1316221 0.91882133 9.1835496e-39
-10.387155 -6.6956143 -0.70297682 9.1835496e-39
-11.81895 -5.9092922 -0.52590805 9.1835496e-39
-9.902113 -5.5238366 0.21770002 9.1835496e-39
-11.329885 -11.186312 0.32567966 9.1835496e-39
-9.983675 -3.2946234 0.95446336 9.1835496e-39
-10.958312 -6.9201336 0.79814428 9.1835496e-39
-10.022511 -7.3644829 -0.44529939 9.1835496e-39
-10.938974 -11.164826 1.0747417 9.1835496e-39
-11.122775 -5.1991725 0.82694089 9.1835496e-39
-9.9361763 -8.0481005 -0.66139477 9.1835496e-39
-10.229843 -5.6315384 -0.67598385 9.1835496e-39
-12.132312 -10.111282 0.63625789 9.1835496e-39
-9.2654858 -3.8740721 0.3056049 9.1835496e-39
-11.626588 -11.302782 0.54703248 9.1835496e-39
-9.8209639 -2.8502083 -0.83254677 9.1835496e-39
-10.579517 -4.0069695 0.41220051 9.1835496e-39
-12.160295 -4.7334499 -0.88876212 9.1835496e-39
-11.839782 -8.4745035 1.0156248 9.1835496e-39
-11.108334 -5.7250414 0.9558084 9.1835496e-39
-10.294754 -7.6130476 0.81850159 9.1835496e-39
-11.037375 -2.4060276 -1.0517521 9.1835496e-39
-12.462259 -4.5259585 0.1269584 9.1835496e-39
-11.185633 -10.441617 -1.0375235 9.1835496e-39
-10.058346 -3.7236354 0.52390617 9.1835496e-39
-11.696321 -4.052928 0.63214916 9.1835496e-39
-11.372036 -6.8648806 1.0660622 9.1835496e-39
-11.968779 -4.4773722 -0.2600756 9.1835496e-39
-12.453971 -4.7525268 0.79726738 9.1835496e-39
-10.503963 -10.042783 1.043965 9.1835496e-39
-9.0109606 -7.5866385 0.13833039 9.1835496e-39
-9.867424 -2.4825668 -0.063149735 9.1835496e-39
-10.648206 -6.1764407 0.37435985 9.1835496e-39
-11.494984 -5.9090767 -0.93350637 9.1835496e-39
-11.009598 -11.335267 0.92617321 9.1835496e-39
-12.842226 -11.823201 0.046716541 9.1835496e-39
-11.33723 -6.8418241 -0.99070424 9.1835496e-39
-11.111697 -3.9640532 0.98473907 9.1835496e-39
-10.647663 -6.1373124 0.77641714 9.1835496e-39
-12.26127 -1.9014355 0.16257879 9.1835496e-39
-12.647202 -5.9467645 -0.11802926 9.1835496e-39
-9.4512949 -8.2451324 0.82361937 9.1835496e-39
-10.89376 -5.4282141 1.0071234 9.1835496e-39
-10.288605 -10.521413 0.86997545 9.1835496e-39
-9.8564825 -7.7165365 -0.12440095 9.1835496e-39
-9.1965599 -6.5556178 0.83710998 9.1835496e-39
-12.436863 -7.847754 0.112273 9.1835496e-39
-10.35375 -2.1186168 0.44136968 9.1835496e-39
-11.934529 -5.8765707 -0.3087157 9.1835496e-39
-10.277164 -11.551583 1.0554516 9.1835496e-39
-10.56184 -7.9072833 0.95452929 9.1835496e-39
-11.985186 -5.1732111 -0.97493875 9.1835496e-39
-11.57838 -9.6848526 0.21744378 9.1835496e-39
-9.7539492 -8.5433636 0.01091373 9.1835496e-39
-10.762526 -12.041302 0.15253207 9.1835496e-39
-13.067003 -12.360309 -0.64072537 9.1835496e-39
-11.314091 -5.2178822 0.86217576 9.1835496e-39
-10.751215 -8.3074493 -0.45218605 9.1835496e-39
-10.858534 -5.6065283 0.18396004 9.1835496e-39
-9.8368969 -6.493978 0.65329492 9.1835496e-39
-9.9964027 -6.9871693 0.92559433 9.1835496e-39
-12.050022 -5.2608452 -0.53770435 9.1835496e-39
-10.70671 -4.0311012 0.73039663 9.1835496e-39
-10.725324 -5.4346113 -0.7934044 9.1835496e-39
-9.4809828 -5.4373813 0.8114323 9.1835496e-39
-11.26019 -2.1401632 0.89188254 9.1835496e-39
-10.795477 -5.0366621 0.83856612 9.1835496e-39
-10.284971 -5.3141789 -0.42193985 9.1835496e-39
-10.936283 -8.3990221 -0.98862725 9.1835496e-39
-11.527405 -4.5026083 -0.29421532 9.1835496e-39
-9.5891104 -4.9113517 0.045414004 9.1835496e-39
-12.135233 -5.9430881 -0.51217967 9.1835496e-39
-12.067558 -6.5446181 0.55866385 9.1835496e-39
-11.402801 -3.4132421 -0.91601998 9.1835496e-39
-11.45335 -8.0430021 -0.27814335 9.1835496e-39
-10.551355 -4.5661697 -0.1525006 9.1835496e-39
-10.264348 -3.517648 0.73065394 9.1835496e-39
-12.058188 -9.7233591 0.11537243 9.1835496e-39
-9.6950684 -11.518605 0.64184684 9.1835496e-39
-12.230085 -9.5465641 -0.28501779 9.1835496e-39
-9.8902836 -5.8581843 -0.18610723 9.1835496e-39
-10.683752 -7.2912302 -0.58351743 9.1835496e-39
-10.271876 -4.5515633 0.6046766 9.1835496e-39
-9.3564987 -10.824575 -0.37174538 9.1835496e-39
-10.467548 -7.0469289 0.80911261 9.1835496e-39
-12.036823 -8.6687784 -0.90340829 9.1835496e-39
-10.431067 -9.8695021 0.9655841 9.1835496e-39
-10.554386 -11.308167 -0.95885944 9.1835496e-39
-11.508002 -8.2881489 0.21084002 9.1835496e-39
-10.804498 -6.716795 -0.83861643 9.1835496e-39
-10.839163 -6.4603868 0.31383291 9.1835496e-39
-10.015982 -6.8495951 0.34796405 9.1835496e-39
-9.7815247 -7.1577249 0.14940536 9.1835496e-39
-10.706349 -4.8234124 -1.1098995 9.1835496e-39
-9.8401508 -7.4559622 -0.74059236 9.1835496e-39
-12.435755 -1.9279157 -0.24741036 9.1835496e-39
-9.2450428 -5.4087033 -0.501293 9.1835496e-39
-10.177797 -11.011378 1.0175253 9.1835496e-39
-11.79897 -4.6562829 0.89953679 9.1835496e-39
-9.7457037 -3.4644692 0.25629863 9.1835496e-39
-11.64874 -9.720047 -1.0360516 9.1835496e-39
-11.620246 -9.0390921 -1.0072931 9.1835496e-39
-11.845182 -6.3650246 1.0050867 9.1835496e-39
-10.640122 -4.5264711 -0.79354125 9.1835496e-39
-10.971514 -3.4462905 1.0525689 9.1835496e-39
-9.403264 -2.5864456 -0.098005518 9.1835496e-39
-9.445322 -7.6182823 -0.067070782 9.1835496e-39
-11.509849 -10.600743 0.43407884 9.1835496e-39
-10.746183 -7.5673609 -1.0749669 9.1835496e-39
-11.244537 -5.4250751 0.45580366 9.1835496e-39
-9.5200443 -3.7731845 -0.38645339 9.1835496e-39
-11.20781 -4.9914017 0.87189311 9.1835496e-39
-10.944755 -5.1613512 -0.84243917 9.1835496e-39
-11.514963 -4.0796585 -0.41001707 9.1835496e-39
-13.248779 -10.619572 0.38603106 9.1835496e-39
-11.211403 -5.9212775 -0.64849883 9.1835496e-39
-11.295982 -8.9272995 -0.93886417 9.1835496e-39
-9.7788296 -9.332119 -0.0016825096 9.1835496e-39
-10.489142 -5.6458187 1.0501724 9.1835496e-39
-11.202953 -6.0558138 -0.88625693 9.1835496e-39
-11.613782 -9.1011639 -0.20542099 9.1835496e-39
-11.260348 -5.6401706 -0.99897671 9.1835496e-39
-11.874149 -7.5991511 0.036648352 9.1835496e-39
-11.032117 -7.5586796 -0.81327671 9.1835496e-39
-11.251655 -7.8696585 -0.35902998 9.1835496e-39
-12.719406 -4.8547573 0.1541421 9.1835496e-39
-10.106555 -8.0638409 0.72303253 9.1835496e-39
-12.509027 -3.458791 0.21903929 9.1835496e-39
-12.002247 -2.0696428 -1.0163181 9.1835496e-39
-10.507607 -7.6519165 0.69194299 9.1835496e-39
-10.26212 -10.097631 -0.75078475 9.1835496e-39
-11.092982 -9.4876451 -0.98921025 9.1835496e-39
-11.394511 -11.020218 0.99324214 9.1835496e-39
-10.78908 -4.3306985 -0.7420522 9.1835496e-39
-12.178289 -2.2131164 0.70707744 9.1835496e-39
-10.112394 -5.9767885 -0.28684449 9.1835496e-39
-11.683737 -5.949769 -0.99446952 9.1835496e-39
-11.960452 -5.3839507 -0.16860229 9.1835496e-39
-11.163568 -9.4633722 -0.73088068 9.1835496e-39
-12.236894 -2.4699275 -0.057370353 9.1835496e-39
-11.930399 -4.6439095 0.19563478 9.1835496e-39
-10.329422 -7.4246073 -1.0400742 9.1835496e-39
-11.543242 -3.4120839 -0.46908468 9.1835496e-39
-10.843041 -7.0990958 -0.65319723 9.1835496e-39
-10.834145 -3.4904332 0.99722588 9.1835496e-39
-8.9565582 -2.7115636 -0.027304851 9.1835496e-39
-10.84693 -6.2030649 -1.0142475 9.1835496e-39
-12.40196 -9.8114262 0.30772975 9.1835496e-39
-10.351897 -2.3809733 -0.91468114 9.1835496e-39
-10.67778 -8.4524384 0.97843969 9.1835496e-39
-12.791789 -11.85604 0.11650836 9.1835496e-39
-10.226959 -5.1775217 0.60813093 9.1835496e-39
-11.304901 -4.2776432 -1.0071778 9.1835496e-39
-9.5947189 -9.4922237 0.59385043 9.1835496e-39
-10.600503 -5.496377 -0.85327727 9.1835496e-39
-11.864762 -7.5232711 -0.56736267 9.1835496e-39
-11.307131 -4.3832946 -1.0492171 9.1835496e-39
-11.748506 -9.2754984 -0.63637298 9.1835496e-39
-11.49207 -4.8633642 0.14058304 9.1835496e-39
-10.572954 -6.8798232 0.57937455 9.1835496e-39
-11.641688 -9.2211161 -0.53856355 9.1835496e-39
-10.145481 -7.7731686 -1.0447211 9.1835496e-39
-11.735495 -4.5892835 0.45741466 9.1835496e-39
-11.081506 -3.7648215 -0.98838049 9.1835496e-39
-11.716281 -4.3878808 -0.60572541 9.1835496e-39
-12.625251 -8.4651499 0.6053226 9.1835496e-39
-10.608743 -7.3424358 0.62292677 9.1835496e-39
-11.289557 -5.8112183 0.71319205 9.1835496e-39
-11.865139 -7.8281975 -1.2115307 9.1835496e-39
-10.566442 -5.3125834 0.81262863 9.1835496e-39
-10.509157 -5.4365182 0.20095742 9.1835496e-39
-10.703533 -12.355514 -0.70154929 9.1835496e-39
-12.801367 -9.8166981 0.54303122 9.1835496e-39
-9.9520006 -4.953773 0.94451684 9.1835496e-39
-11.063554 -4.0077109 0.53962159 9.1835496e-39
-11.794194 -10.489349 0.88200128 9.1835496e-39
-9.7241678 -6.0584812 -0.43632245 9.1835496e-39
-10.993503 -5.4651055 -0.95637286 9.1835496e-39
-10.603294 -2.3898261 0.57449895 9.1835496e-39
-10.003105 -6.4399285 -0.3016279 9.1835496e-39
-12.060037 -8.2836399 -0.20152745 9.1835496e-39
-11.030241 -5.1647401 1.0044215 9.1835496e-39
-11.696036 -2.9179244 0.83649492 9.1835496e-39
-12.39759 -7.1646395 -0.04926911 9.1835496e-39
-10.525231 -9.1428967 -0.76707506 9.1835496e-39
-10.816566 -9.1257629 1.0319487 9.1835496e-39
-11.869073 -6.7845726 0.77325058 9.1835496e-39
-10.893024 -5.3093276 -0.70838702 9.1835496e-39
-12.400637 -8.9321308 0.36171743 9.1835496e-39
-12.203076 -4.3456368 -0.10172117 9.1835496e-39
-10.394839 -7.5361309 1.0793768 9.1835496e-39
-9.520299 -8.2768822 0.76141798 9.1835496e-39
-10.289853 -3.6899962 0.46914271 9.1835496e-39
-12.851915 -3.2008018 0.31446695 9.1835496e-39
-10.239498 -9.8638334 -0.1224034 9.1835496e-39
-11.777102 -2.2756622 1.0827454 9.1835496e-39
-11.319025 -5.3319798 -1.0413371 9.1835496e-39
-12.648959 -6.8684111 0.33949378 9.1835496e-39
-11.367846 -5.7999258 -1.119388 9.1835496e-39
-11.872927 -10.985652 -0.38112491 9.1835496e-39
-11.29911 -6.8070097 -0.73233736 9.1835496e-39
-10.603345 -7.1892843 -1.0335358 9.1835496e-39
-10.588491 -2.475678 0.80868298 9.1835496e-39
-11.995923 -2.5906167 0.61212182 9.1835496e-39
-10.431909 -8.4093142 -0.99806082 9.1835496e-39
-11.585871 -7.9971676 0.96170825 9.1835496e-39
-9.9635801 -3.5092809 0.94418162 9.1835496e-39
-11.763306 -4.9725361 -0.68897891 9.1835496e-39
-10.011925 -11.12734 0.88111383 9.1835496e-39
-10.024611 -10.542404 -0.31328994 9.1835496e-39
-10.001772 -6.3811235 -0.33160359 9.1835496e-39
-11.47321 -8.6677532 -0.92179149 9.1835496e-39
-10.986645 -10.731463 0.4744164 9.1835496e-39
-11.625423 -5.0434666 -0.1658342 9.1835496e-39
-12.124532 -3.4076414 -0.12245979 9.1835496e-39
-11.62976 -9.2465191 0.94112068 9.1835496e-39
-10.768923 -4.1184096 0.18880917 9.1835496e-39
-9.6457748 -3.8435864 0.98605901 9.1835496e-39
-11.109281 -3.0943012 -0.9938454 9.1835496e-39
-10.062323 -9.3602505 -0.77601433 9.1835496e-39
-11.30946 -3.3447564 0.99362016 9.1835496e-39
-10.58363 -1.8187333 0.81664312 9.1835496e-39
-12.464427 -10.504906 -0.80461645 9.1835496e-39
-10.906962 -6.3562531 -0.97299612 9.1835496e-39
-9.684206 -5.5658326 0.55034757 9.1835496e-39
-12.280608 -5.7623858 0.035494942 9.1835496e-39
-10.898451 -9.0077391 1.0447032 9.1835496e-39
-10.968814 -6.9328732 0.86184555 9.1835496e-39
-12.124905 -7.2308855 -0.59589988 9.1835496e-39
-12.393768 -5.9976306 0.72831118 9.1835496e-39
-9.7570581 -5.7879238 0.34296536 9.1835496e-39
-11.336227 -11.005979 -0.11773741 9.1835496e-39
-10.849427 -2.737803 -0.15205145 9.1835496e-39
-11.230956 -3.1141362 1.0024132 9.1835496e-39
-9.7800369 -7.0098906 0.22883488 9.1835496e-39
-11.92614 -6.216506 -0.90219456 9.1835496e-39
-12.173438 -1.8289487 0.87262213 9.1835496e-39
-11.574592 -3.2502849 0.94591516 9.1835496e-39
-10.20072 -7.6069412 -0.40335891 9.1835496e-39
-12.472746 -4.3687606 -0.713857 9.1835496e-39
-11.554819 -1.9343997 1.1307867 9.1835496e-39
-12.253468 -8.1992445 -1.0493617 9.1835496e-39
-10.918809 -2.8938093 -1.1530405 9.1835496e-39
-10.777959 -6.7957706 -1.172031 9.1835496e-39
-10.977412 -6.9994316 0.98054022 9.1835496e-39
-12.04901 -2.1973102 -0.82850951 9.1835496e-39
-10.939835 -3.6968076 0.68541235 9.1835496e-39
-11.970105 -7.4505868 0.59711319 9.1835496e-39
-10.409313 -9.0093861 -0.43538159 9.1835496e-39
-11.442571 -4.4285336 -0.80421931 9.1835496e-39
-11.49242 -10.262277 0.74015218 9.1835496e-39
-13.1569 -7.9009237 0.27994198 9.1835496e-39
-10.478407 -9.5639954 0.067837223 9.1835496e-39
-11.191093 -8.5115213 -1.0939994 9.1835496e-39
-9.9398499 -11.132393 0.95644367 9.1835496e-39
-10.33963 -1.733456 -0.58034229 9.1835496e-39
-9.7757597 -3.4104264 0.37046239 9.1835496e-39
-9.2115211 -5.2756515 -0.18403031 9.1835496e-39
-11.240355 -10.204325 -0.95602411 9.1835496e-39
-11.379834 -3.0022495 0.96513885 9.1835496e-39
-12.547612 -6.5559211 0.27294984 9.1835496e-39
-11.841281 -5.2459855 -0.87232 9.1835496e-39
-11.521268 -3.8148248 0.92691934 9.1835496e-39
-10.419649 -8.4717913 -0.085623838 9.1835496e-39
-9.3543625 -5.3519731 -0.7774353 9.1835496e-39
-9.7333984 -7.4453268 -0.22840841 9.1835496e-39
-8.8306894 -8.1250105 -0.056266859 9.1835496e-39
-11.335779 -6.5514622 1.0240557 9.1835496e-39
-9.7613802 -5.4825144 0.12221266 9.1835496e-39
-10.635278 -5.5810618 1.0148034 9.1835496e-39
-11.160122 -9.914814 0.50995469 9.1835496e-39
-9.2830095 -3.0549843 -0.48809364 9.1835496e-39
-11.694587 -10.210435 0.36523011 9.1835496e-39
-10.20492 -1.8872802 -1.0033829 9.1835496e-39
-12.553073 -9.6574869 0.11328676 9.1835496e-39
-9.5724201 -11.294856 -0.41408005 9.1835496e-39
-10.863061 -6.7352738 -1.0353442 9.1835496e-39
-11.170484 -2.7118821 1.0049754 9.1835496e-39
-8.7059393 -5.8688087 0.083953306 9.1835496e-39
-9.9062767 -3.8626962 -0.92358929 9.1835496e-39
-12.453151 -6.7949095 0.8880403 9.1835496e-39
-9.4358711 -5.4472022 -0.095964134 9.1835496e-39
-10.450783 -6.7851019 0.93514568 9.1835496e-39
-10.913733 -3.9230492 -0.21551163 9.1835496e-39
-8.9218035 -4.7961459 0.016199261 9.1835496e-39
-12.054109 -2.8517046 -0.5488804 9.1835496e-39
-11.708979 -9.4858732 -0.99934804 9.1835496e-39
-10.970285 -9.9635286 1.061586 9.1835496e-39
-11.810647 -11.234726 0.94522083 9.1835496e-39
-11.62762 -4.93293 -1.0858642 9.1835496e-39
-11.825869 -2.0308793 -0.96827781 9.1835496e-39
-10.341937 -7.2020369 -0.46383795 9.1835496e-39
-10.78273 -6.4606051 0.71198571 9.1835496e-39
-11.68883 -8.093668 -0.86682433 9.1835496e-39
-9.8100958 -6.6186805 0.74047744 9.1835496e-39
-13.104085 -10.474477 0.26936057 9.1835496e-39
-10.878354 -8.4676113 -0.44708452 9.1835496e-39
-11.366611 -3.0504124 0.21986321 9.1835496e-39
-10.70059 -9.3319778 0.44664934 9.1835496e-39
-12.826858 -5.9208508 0.28278136 9.1835496e-39
-10.051799 -5.5797133 -1.1100085 9.1835496e-39
-11.02087 -3.9845433 -1.0221225 9.1835496e-39
-12.064368 -5.5325866 0.57459044 9.1835496e-39
-10.360554 -8.3932152 0.65699327 9.1835496e-39
-12.337886 -11.644558 -0.62045044 9.1835496e-39
-12.057764 -11.753201 0.87045544 9.1835496e-39
-11.461914 -2.3890061 0.97079855 9.1835496e-39
-10.897457 -2.4292717 1.1193849 9.1835496e-39
-11.024335 -6.9357557 0.8605656 9.1835496e-39
-10.587094 -6.014431 -1.0243502 9.1835496e-39
-11.448144 -8.5944242 1.077327 9.1835496e-39
-10.570948 -3.7248597 0.7546494 9.1835496e-39
-12.206559 -4.5014262 0.31647849 9.1835496e-39
-11.894403 -8.8738279 0.80039477 9.1835496e-39
-10.900385 -8.4017668 -0.84029794 9.1835496e-39
-11.095553 -8.3458452 -0.64665484 9.1835496e-39
-9.3707743 -10.98656 0.690575 9.1835496e-39
-11.003938 -8.1147127 0.85142839 9.1835496e-39
-11.054791 -8.136137 0.97972935 9.1835496e-39
-10.776003 -8.4520493 -0.80647653 9.1835496e-39
-11.451555 -5.5309343 -0.53822374 9.1835496e-39
-10.298433 -2.7965927 0.61141884 9.1835496e-39
-9.8035307 -4.7640009 0.13534839 9.1835496e-39
-11.65545 -8.2180986 0.34656498 9.1835496e-39
-10.068643 -9.4561796 0.030326875 9.1835496e-39
-10.924658 -6.1346517 -0.90373445 9.1835496e-39
-12.776048 -6.9423904 0.41274634 9.1835496e-39
-11.016821 -7.377213 0.93041843 9.1835496e-39
-9.4093838 -3.2471571 0.10476615 9.1835496e-39
-9.7352171 -8.0099077 -0.63068038 9.1835496e-39
-12.867998 -9.085866 0.26342893 9.1835496e-39
-12.685797 -2.1244049 0.42574984 9.1835496e-39
-11.413493 -10.066131 -0.74304521 9.1835496e-39
-12.321552 -9.5438013 0.52453977 9.1835496e-39
-9.360013 -1.9790633 -0.35508648 9.1835496e-39
-10.263738 -9.8699989 -1.0464742 9.1835496e-39
-12.124208 -5.4547262 0.76427841 9.1835496e-39
-10.39835 -3.5887663 -0.39229804 9.1835496e-39
-11.028129 -9.9025335 -1.0698076 9.1835496e-39
-11.141276 -9.0942078 0.87872839 9.1835496e-39
-11.568192 -11.298062 -0.68645084 9.1835496e-39
-11.214267 -7.1517715 1.0260974 9.1835496e-39
-11.342013 -12.575871 0.98717499 9.1835496e-39
-12.301593 -2.0305345 0.22945878 9.1835496e-39
-10.733802 -3.7514138 0.98660934 9.1835496e-39
-11.031598 -9.1772642 0.96226597 9.1835496e-39
-11.186321 -5.8763885 -0.84790766 9.1835496e-39
-11.835442 -8.4015465 0.75812995 9.1835496e-39
-11.931648 -11.568595 -0.98367745 9.1835496e-39
-9.6991482 -9.133069 -0.93549603 9.1835496e-39
-11.818132 -9.5974159 -0.95624036 9.1835496e-39
-10.214424 -7.2254066 -0.31680641 9.1835496e-39
-10.99455 -4.8403969 -0.67696762 9.1835496e-39
-10.608972 -10.796218 -1.0924878 9.1835496e-39
-11.062126 -3.4419253 -0.99695361 9.1835496e-39
-11.36533 -10.532977 -0.95218909 9.1835496e-39
-12.34166 -4.7089667 0.59607249 9.1835496e-39
-10.323939 -11.717801 1.0422466 9.1835496e-39
-10.965006 -5.4766469 -1.0209004 9.1835496e-39
-11.20554 -9.5077724 -0.82795691 9.1835496e-39
-9.5491171 -11.981526 0.19864613 9.1835496e-39
-10.877486 -3.6451488 0.88108552 9.1835496e-39
-10.018786 -10.215152 -0.27743864 9.1835496e-39
-11.43026 -4.7062616 -0.10160248 9.1835496e-39
-12.220652 -8.9712934 0.39075816 9.1835496e-39
-11.676347 -3.7017231 -0.85623294 9.1835496e-39
-10.221098 -8.1711483 -0.10444101 9.1835496e-39
-11.066339 -8.8361406 -1.0020925 9.1835496e-39
-10.865137 -9.8583403 0.42186937 9.1835496e-39
-12.281034 -7.6778412 -0.075339988 9.1835496e-39
-11.128528 -7.6664772 1.0786884 9.1835496e-39
-11.142452 -4.2111583 1.0102794 9.1835496e-39
-10.895313 -4.5359373 -0.99551433 9.1835496e-39
-10.771875 -5.0928378 -0.75546837 9.1835496e-39
-10.903749 -6.6006498 0.94381535 9.1835496e-39
-10.902471 -10.358459 -0.61017114 9.1835496e-39
-11.476021 -3.9834065 0.96165168 9.1835496e-39
-10.354719 -7.3646598 -0.15933627 9.1835496e-39
-11.578514 -5.6768608 0.62602913 9.1835496e-39
-11.01505 -7.9725971 0.98590273 9.1835496e-39
-10.979965 -8.3214235 0.8808977 9.1835496e-39
-10.42249 -8.3006725 0.5063948 9.1835496e-39
-9.6172285 -6.1563349 -0.82185614 9.1835496e-39
-10.504974 -2.6803718 0.67496341 9.1835496e-39
-11.547585 -11.52953 -0.70515931 9.1835496e-39
-9.5761528 -7.7919846 0.79143763 9.1835496e-39
-11.342868 -4.2626338 0.72973126 9.1835496e-39
-12.208526 -5.9832449 -1.046297 9.1835496e-39
-13.130531 -2.6910625 -0.2792708 9.1835496e-39
-12.276048 -5.2377648 0.51186633 9.1835496e-39
-10.158652 -7.7533126 0.17761762 9.1835496e-39
-12.207913 -4.1498699 0.60220861 9.1835496e-39
-10.890569 -7.0182352 -0.6746099 9.1835496e-39
-12.036385 -8.6293011 0.64297396 9.1835496e-39
-12.035562 -2.1782212 0.058690492 9.1835496e-39
-12.070354 -6.763504 -0.47317612 9.1835496e-39
-11.167876 -2.435951 0.96091962 9.1835496e-39
-11.243092 -5.3920379 -0.96027088 9.1835496e-39
-11.96217 -4.7730575 -0.47261715 9.1835496e-39
-9.8343067 -4.8674626 -0.37760797 9.1835496e-39
-10.978839 -2.3274581 0.91053039 9.1835496e-39
-10.536106 -4.4174352 0.3911216 9.1835496e-39
-11.749898 -7.2603178 0.72129768 9.1835496e-39
-10.117886 -2.2021375 0.11367837 9.1835496e-39
-10.111752 -2.4065437 -0.8840701 9.1835496e-39
-9.6295605 -11.623899 0.51713753 9.1835496e-39
-11.231345 -5.0878215 -0.67128748 9.1835496e-39
-10.661935 -11.91412 -1.0673506 9.1835496e-39
-12.88519 -7.223094 0.66491294 9.1835496e-39
-9.4205561 -5.4338865 0.059174988 9.1835496e-39
-10.541163 -2.4661748 -0.96612579 9.1835496e-39
-10.278262 -3.6683369 -0.80324113 9.1835496e-39
-11.723506 -8.0741444 0.97382188 9.1835496e-39
-9.7735214 -10.062284 0.093985118 9.1835496e-39
-10.166955 -7.9746952 0.54893965 9.1835496e-39
-10.334546 -8.2997284 0.84598732 9.1835496e-39
-10.694368 -5.1576905 0.78552037 9.1835496e-39
-9.4040461 -1.8813426 0.38071355 9.1835496e-39
-10.534666 -6.1653833 0.15524009 9.1835496e-39
-11.939598 -3.2053571 -1.1174848 9.1835496e-39
-11.147668 -1.8580546 -1.1813487 9.1835496e-39
-10.00989 -7.5947733 -0.36090636 9.1835496e-39
-10.354537 -10.74238 -1.1295502 9.1835496e-39
-10.330653 -9.9667568 0.7956304 9.1835496e-39
-12.487694 -3.9047143 0.30569288 9.1835496e-39
-10.827643 -12.466777 0.90353131 9.1835496e-39
-10.041204 -8.0927114 -0.80475456 9.1835496e-39
-10.303308 -5.2642856 -0.78415191 9.1835496e-39
-10.581152 -5.2746897 -0.72833186 9.1835496e-39
-11.414886 -5.96556 0.1373798 9.1835496e-39
-11.533764 -5.611773 -0.61245394 9.1835496e-39
-12.74685 -12.628885 -0.74412775 9.1835496e-39
-13.251816 -4.5221329 -0.43425807 9.1835496e-39
-10.493423 -2.7910926 -0.90704662 9.1835496e-39
-10.926272 -8.9434252 0.20393084 9.1835496e-39
-10.982427 -2.6921632 1.0397546 9.1835496e-39
-11.367371 -7.1004353 0.77469516 9.1835496e-39
-11.612583 -9.135848 0.87397164 9.1835496e-39
-8.7609978 -11.125966 -0.54173654 9.1835496e-39
-11.018326 -9.0429716 -0.028158609 9.1835496e-39
-10.75983 -7.5186362 0.62738454 9.1835496e-39
-12.740446 -3.6680403 -0.0086659258 9.1835496e-39
-11.977442 -6.5964236 -0.12779312 9.1835496e-39
-12.18154 -8.1588354 0.19579607 9.1835496e-39
-11.758082 -2.6652429 0.89861643 9.1835496e-39
-11.2296 -10.34061 1.0579051 9.1835496e-39
-11.426512 -4.2534251 0.48856407 9.1835496e-39
-9.9385118 -5.1882257 0.78276974 9.1835496e-39
-12.694313 -11.680469 0.020596173 9.1835496e-39
-12.087964 -8.2293653 -0.13510744 9.1835496e-39
-9.5939198 -2.8977282 -0.19659916 9.1835496e-39
-11.633476 -2.0438824 -0.61095756 9.1835496e-39
-12.477018 -6.4166355 0.73190415 9.1835496e-39
-9.7240238 -7.6223731 0.058617655 9.1835496e-39
-10.931893 -8.3009024 -1.0075381 9.1835496e-39
-10.46422 -5.1229525 -0.60979992 9.1835496e-39
-10.659584 -9.9636297 -1.1572773 9.1835496e-39
-9.6509733 -3.156306 0.79454237 9.1835496e-39
-9.5868988 -8.1210756 -0.54015332 9.1835496e-39
-10.362539 -2.3257978 -0.42523679 9.1835496e-39
-10.424301 -2.1096461 -1.0674032 9.1835496e-39
-10.507134 -11.279199 -1.0112062 9.1835496e-39
-9.5625277 -11.348615 -0.79487467 9.1835496e-39
-11.828542 -11.885611 0.29721597 9.1835496e-39
-11.003057 -4.6097293 0.63972712 9.1835496e-39
-10.114432 -6.260294 1.0165175 9.1835496e-39
-9.8034143 -5.3353953 0.31178117 9.1835496e-39
-11.889025 -6.1554589 0.6152904 9.1835496e-39
-11.085247 -9.626194 -0.31702188 9.1835496e-39
-11.820474 -4.755477 0.57802325 9.1835496e-39
-12.112444 -9.4724531 0.1930072 9.1835496e-39
-10.651185 -9.5790634 -0.89482117 9.1835496e-39
-10.220595 -6.1591706 0.24634328 9.1835496e-39
-11.939995 -10.489152 -0.46294254 9.1835496e-39
-9.1938705 -7.7561784 -0.57394826 9.1835496e-39
-12.18125 -9.575263 0.62642592 9.1835496e-39
-11.595464 -4.2892108 0.8804872 9.1835496e-39
-9.66712 -3.1493583 0.81613213 9.1835496e-39
-10.177933 -10.364944 -0.32314155 9.1835496e-39
-10.910593 -10.475159 1.035673 9.1835496e-39
-11.570118 -2.1717818 -0.73894691 9.1835496e-39
-9.9877958 -5.2868462 -0.33862489 9.1835496e-39
-10.053311 -7.5045786 -0.61312199 9.1835496e-39
-10.043424 -2.4491751 -0.93123001 9.1835496e-39
-10.854842 -8.3968735 -1.000244 9.1835496e-39
-12.759665 -5.0145159 0.46828905 9.1835496e-39
-12.227092 -10.258068 -0.99558848 9.1835496e-39
-11.975765 -9.4428205 1.0603147 9.1835496e-39
-11.63628 -10.531361 0.47379953 9.1835496e-39
-10.345466 -10.870854 0.025179265 9.1835496e-39
-9.629281 -10.583236 -0.15536401 9.1835496e-39
-9.768425 -7.690392 0.19132201 9.1835496e-39
-9.6721725 -8.4834099 0.0032088535 9.1835496e-39
-10.982553 -8.8980341 -1.0160221 9.1835496e-39
-11.24459 -5.8897305 -1.0765884 9.1835496e-39
-11.779648 -6.3139853 0.62569237 9.1835496e-39
-9.9926481 -6.9310803 -0.86839843 9.1835496e-39
-11.082397 -5.1199193 0.93027413 9.1835496e-39
-11.306198 -2.2433248 -1.0348591 9.1835496e-39
-10.225552 -10.981742 0.78770697 9.1835496e-39
-12.369187 -2.1389217 -1.0384716 9.1835496e-39
-9.824028 -10.537672 0.054861806 9.1835496e-39
-10.462851 -2.2229085 -0.98532754 9.1835496e-39
-10.837049 -5.5754976 0.69785565 9.1835496e-39
-11.791194 -8.4910803 -0.49378324 9.1835496e-39
-8.8341951 -3.9734318 0.22148533 9.1835496e-39
-10.156425 -7.457736 -0.65999609 9.1835496e-39
-11.532217 -3.3487363 0.0013435708 9.1835496e-39
-9.737874 -4.208148 -0.21594723 9.1835496e-39
-10.289923 -3.6487596 1.1137875 9.1835496e-39
-12.195989 -9.7159328 -0.78067404 9.1835496e-39
-10.48236 -8.7992086 -1.0999049 9.1835496e-39
-11.960193 -9.4392834 -0.11461119 9.1835496e-39
-10.145139 -2.080673 -0.83950031 9.1835496e-39
-11.333817 -6.9950738 -0.74339682 9.1835496e-39
-11.705044 -6.7863607 -0.54465693 9.1835496e-39
-10.855366 -2.1397653 0.84060591 9.1835496e-39
-9.6600895 -9.5651178 -0.0052758912 9.1835496e-39
-12.390287 -6.5458817 0.51323491 9.1835496e-39
-11.364503 -5.1374679 -0.93568617 9.1835496e-39
-10.243808 -2.0163643 0.887335 9.1835496e-39
-11.930364 -6.727479 0.024964193 9.1835496e-39
-9.9724054 -6.2691159 -1.0731657 9.1835496e-39
-10.603756 -4.4088683 0.66747463 9.1835496e-39
-10.437328 -8.2072392 0.94750243 9.1835496e-39
-10.928079 -3.8839319 -0.99970245 9.1835496e-39
-10.610139 -10.826013 1.0345455 9.1835496e-39
-12.937127 -5.7937069 0.57131648 9.1835496e-39
-12.986965 -3.9538052 -0.096248478 9.1835496e-39
-11.920562 -2.6381376 1.1061635 9.1835496e-39
-11.547772 -10.077001 -1.0896966 9.1835496e-39
-11.045989 -3.3692598 -0.9695003 9.1835496e-39
-11.263021 -5.4458871 0.85780561 9.1835496e-39
-11.572852 -3.919652 0.93848032 9.1835496e-39
-11.802435 -10.13843 -0.23085265 9.1835496e-39
-10.704228 -2.1864536 -0.79569197 9.1835496e-39
-10.902675 -6.4958143 1.0155735 9.1835496e-39
-10.438898 -8.1391239 -0.69831896 9.1835496e-39
-12.446311 -7.3486419 0.45737171 9.1835496e-39
-12.266327 -5.2216239 -0.94099742 9.1835496e-39
-11.259834 -12.03738 -0.59329367 9.1835496e-39
-9.6157522 -6.9620233 -0.87180495 9.1835496e-39
-10.337785 -11.297816 0.78621602 9.1835496e-39
-10.11514 -4.2915392 0.33467948 9.1835496e-39
-11.953087 -5.4000964 0.66368467 9.1835496e-39
-10.816008 -4.3299599 -1.0928978 9.1835496e-39
-10.626551 -8.9425545 -1.0020301 9.1835496e-39
-11.717059 -7.9480152 -0.80461675 9.1835496e-39
-10.860229 -3.5450511 1.0215847 9.1835496e-39
-10.748606 -2.7431054 0.79644561 9.1835496e-39
-10.428424 -10.684105 0.057193801 9.1835496e-39
-9.1971903 -11.461701 0.33807766 9.1835496e-39
-10.913739 -9.2197037 -1.0642439 9.1835496e-39
-10.417367 -1.7880652 -0.36874634 9.1835496e-39
-10.717741 -6.2398357 -1.0789378 9.1835496e-39
-11.074032 -2.800319 1.0709503 9.1835496e-39
-10.578859 -7.6050544 0.97614801 9.1835496e-39
-10.592625 -6.5251513 -0.90133417 9.1835496e-39
-12.272649 -3.0855315 -0.27999058 9.1835496e-39
-9.871563 -2.0576806 -1.0105745 9.1835496e-39
-10.260975 -2.3058298 -0.27855375 9.1835496e-39
-11.998418 -4.2292361 -1.0952089 9.1835496e-39
-9.0373945 -3.7476618 -0.42008451 9.1835496e-39
-10.400253 -10.325199 -0.44654661 9.1835496e-39
-10.751146 -11.392791 -0.37103942 9.1835496e-39
-11.690413 -3.7448933 0.0068077608 9.1835496e-39
-11.045773 -5.3435264 0.29332969 9.1835496e-39
-10.760609 -2.0177987 0.48891476 9.1835496e-39
-10.660438 -9.1081057 0.05276468 9.1835496e-39
-11.977425 -2.4554338 -0.79059428 9.1835496e-39
-11.644259 -9.8025837 -0.86858416 9.1835496e-39
-12.017247 -10.726439 -0.80216539 9.1835496e-39
-12.356556 -3.0576673 0.42262274 9.1835496e-39
-11.981027 -2.9867561 0.97908676 9.1835496e-39
-9.4151382 -7.6663632 -0.18764587 9.1835496e-39
-10.658123 -6.8273373 0.89052099 9.1835496e-39
-12.182897 -5.2978578 -0.061338086 9.1835496e-39
-10.797282 -4.0331616 -0.72703701 9.1835496e-39
-9.5328865 -5.3705473 -0.69655651 9.1835496e-39
-9.2262115 -11.741902 -0.76212108 9.1835496e-39
-9.1262598 -4.0819492 -0.46962667 9.1835496e-39
-10.036992 -11.713008 0.80052465 9.1835496e-39
-12.530439 -3.0510902 0.051296089 9.1835496e-39
-10.689965 -5.7657433 -1.0149466 9.1835496e-39
-10.608211 -5.6437511 -0.29064453 9.1835496e-39
-11.141852 -7.9312215 -1.1939956 9.1835496e-39
-10.683512 -2.3429229 1.0056456 9.1835496e-39
-10.167586 -2.14889 -0.5505079 9.1835496e-39
-11.493034 -7.6248302 0.76755756 9.1835496e-39
-11.292042 -3.5608213 1.0096909 9.1835496e-39
-10.355368 -4.3362994 1.0638934 9.1835496e-39
-13.251781 -12.136399 0.16481394 9.1835496e-39
-12.230848 -3.191596 -0.60218811 9.1835496e-39
-11.213382 -3.1376593 -0.38489145 9.1835496e-39
-11.301232 -4.0985246 1.0522246 9.1835496e-39
-11.406209 -11.351123 -0.96445578 9.1835496e-39
-12.373545 -2.2337599 0.50611448 9.1835496e-39
-11.038517 -1.8623931 -1.0857103 9.1835496e-39
-9.784009 -5.4639664 -0.83021015 9.1835496e-39
-11.146292 -9.5172338 -1.0178406 9.1835496e-39
-9.6376686 -8.1701813 -0.19956 9.1835496e-39
-12.246812 -7.3664308 0.98819333 9.1835496e-39
-10.33167 -8.5586824 0.95403594 9.1835496e-39
-13.220004 -6.4436483 0.36954731 9.1835496e-39
-9.5126476 -4.6145277 -0.51892161 9.1835496e-39
-11.505477 -2.294939 -0.98113835 9.1835496e-39
-9.4378681 -7.0112844 -0.3145296 9.1835496e-39
-9.5730238 -6.2464557 0.83499032 9.1835496e-39
-10.742553 -2.355293 0.87047422 9.1835496e-39
-9.6634903 -6.9781961 -0.35826999 9.1835496e-39
-12.613321 -10.357739 1.0431947 9.1835496e-39
-9.5531216 -9.367383 0.82476366 9.1835496e-39
-11.968908 -2.3466058 -0.80134225 9.1835496e-39
-10.853027 -5.9851985 1.1071627 9.1835496e-39
-10.190649 -11.247012 -0.70719862 9.1835496e-39
-11.451618 -9.3826666 0.85368007 9.1835496e-39
-11.632648 -2.7062242 0.56784999 9.1835496e-39
-11.498172 -8.7664299 0.67196941 9.1835496e-39
-10.258857 -12.179835 1.0089911 9.1835496e-39
-11.701899 -11.768043 0.97335273 9.1835496e-39
-9.9513836 -4.0079651 -1.0311805 9.1835496e-39
-10.898438 -6.9289093 -0.12336279 9.1835496e-39
-12.675652 -4.6019416 1.0382717 9.1835496e-39
-12.046117 -4.8052588 0.59686154 9.1835496e-39
-10.411381 -8.1926022 -1.0423251 9.1835496e-39
-10.501932 -10.893843 -0.90188783 9.1835496e-39
-11.079379 -3.3998184 1.0235955 9.1835496e-39
-11.03207 -7.4423046 0.79387641 9.1835496e-39
-9.9170752 -6.850029 0.37893021 9.1835496e-39
-10.337353 -3.4807377 0.75453258 9.1835496e-39
-10.627445 -1.9350114 0.85809827 9.1835496e-39
-12.340964 -8.9768133 -0.54387677 9.1835496e-39
-10.100464 -7.3180237 1.0291615 9.1835496e-39
-12.040353 -5.691288 0.11015498 9.1835496e-39
-9.3482485 -2.501054 -0.76776135 9.1835496e-39
-11.626532 -5.8507795 1.0904768 9.1835496e-39
-11.798932 -7.285315 0.010648549 9.1835496e-39
-12.018034 -7.2562132 0.72899562 9.1835496e-39
-11.11282 -8.6755524 0.59739411 9.1835496e-39
-10.368506 -3.6792305 -0.81510645 9.1835496e-39
-11.686025 -10.147223 -0.78862083 9.1835496e-39
-11.514637 -12.932352 -0.74796778 9.1835496e-39
-10.254144 -11.860122 0.45179173 9.1835496e-39
-12.297166 -5.533165 -0.34847784 9.1835496e-39
-10.804824 -5.2845974 0.57257718 9.1835496e-39
-12.176614 -6.8436279 0.11380032 9.1835496e-39
-9.8629007 -10.392523 0.72086304 9.1835496e-39
-11.304262 -5.9971485 -1.1294861 9.1835496e-39
-11.51914 -5.8023796 -0.98378271 9.1835496e-39
-11.248784 -8.224885 0.88785309 9.1835496e-39
-10.76272 -5.5610161 -0.87905771 9.1835496e-39
-11.100004 -4.2125149 0.93349427 9.1835496e-39
-11.300663 -3.7914867 0.97398281 9.1835496e-39
-9.5053596 -9.7488556 1.0206521 9.1835496e-39
-10.442652 -10.537501 -1.1101875 9.1835496e-39
