ply
format ascii 1.0
comment PCL generated
element vertex 1222
property float x
property float y
property float z
property uchar red
property uchar green
property uchar blue
element camera 0
property float view_px
property float view_py
property float view_pz
property float x_axisx
property float x_axisy
property float x_axisz
property float y_axisx
property float y_axisy
property float y_axisz
property float z_axisx
property float z_axisy
property float z_axisz
property float focal
property float scalex
property float scaley
property float centerx
property float centery
property int viewportx
property int viewporty
property float k1
property float k2
end_header
25.9624 25.322714 -0.90462542 0 100 0
16.056877 25.944099 2.3254046 0 100 0
10.437069 24.266178 -1.4063109 0 100 0
6.9888663 22.332243 -2.2313502 0 100 0
23.500675 25.904163 1.0582231 0 100 0
38.768303 15.508574 2.0108202 0 100 0
17.051256 26.090059 -1.3066633 0 100 0
9.7583361 23.927452 0.18194005 0 100 0
12.131193 24.93844 1.558691 0 100 0
41.998329 5.248651 1.2465163 0 100 0
32.606247 22.123516 2.0702572 0 100 0
4.497056 20.3244 -2.056848 0 100 0
3.1333933 18.959843 -1.5538788 0 100 0
40.058243 13.05156 1.3573648 0 100 0
39.512245 14.216675 -1.6616856 0 100 0
22.060575 26.100435 1.4919912 0 100 0
27.982485 24.622601 -0.040166013 0 100 0
15.895112 25.914738 -1.5556116 0 100 0
22.633236 26.040773 -1.2222345 0 100 0
2.9095571 18.709774 -0.67191148 0 100 0
11.043871 24.518656 -0.46307054 0 100 0
42.057308 4.0752602 -0.88116843 0 100 0
9.2928333 23.695139 0.43793121 0 100 0
33.209515 21.663452 0.016036531 0 100 0
5.5137939 21.217957 -2.1308928 0 100 0
40.787682 11.225451 1.9357666 0 100 0
21.568264 26.151728 -2.3501568 0 100 0
23.241272 25.956276 -0.47489426 0 100 0
40.776962 11.256387 -1.6888088 0 100 0
31.260317 22.99778 1.3529277 0 100 0
42.072922 -0.44662514 0.43588272 0 100 0
23.740704 25.855942 2.5413687 0 100 0
16.446014 26.014727 1.1310232 0 100 0
33.834175 21.168037 1.7428827 0 100 0
35.226292 19.924843 -1.8227317 0 100 0
38.750011 15.540341 0.90952903 0 100 0
40.001179 13.176631 -0.85362864 0 100 0
4.8920135 20.689583 -1.8053985 0 100 0
32.735069 22.039738 0.68034852 0 100 0
40.84491 11.060301 -1.205132 0 100 0
32.247284 22.356684 0.27102432 0 100 0
28.880302 24.256523 2.0073564 0 100 0
35.41914 19.739716 1.6547873 0 100 0
6.874033 22.255878 1.688859 0 100 0
30.051414 23.667807 1.622169 0 100 0
42.054714 3.6560616 -0.80328065 0 100 0
31.378056 22.921301 1.0658586 0 100 0
5.4042325 21.134357 -1.3742861 0 100 0
31.012699 23.158625 0.84832221 0 100 0
31.65868 22.739019 1.5830934 0 100 0
6.1549196 21.707163 -0.53990132 0 100 0
12.142572 24.942833 -1.9943175 0 100 0
41.923347 6.2687678 0.32636812 0 100 0
25.03816 25.59528 -0.15258065 0 100 0
20.534229 26.223106 1.0650223 0 100 0
39.992958 13.194653 -0.50050884 0 100 0
34.247452 20.840269 1.8952439 0 100 0
17.440977 26.123302 -0.22681534 0 100 0
7.6233544 22.727695 1.6713133 0 100 0
4.3629246 20.200378 0.50727886 0 100 0
32.82032 21.972122 1.6948276 0 100 0
42.042336 4.3732219 0.093678989 0 100 0
22.89703 26.013288 -0.76806521 0 100 0
13.120125 25.262743 2.316503 0 100 0
13.356516 25.329185 -0.6680994 0 100 0
42.074192 -0.23697007 -0.50675207 0 100 0
18.637453 26.225357 0.098522894 0 100 0
4.6677194 20.482197 2.1161735 0 100 0
15.794812 25.896534 0.090524353 0 100 0
31.545582 22.812483 0.84804004 0 100 0
41.990494 5.4045744 -0.00089587609 0 100 0
41.115658 10.278981 -1.6972387 0 100 0
42.004189 5.1321101 -0.33516499 0 100 0
40.824974 11.117841 -1.2766464 0 100 0
37.123356 17.862661 0.42736202 0 100 0
9.0430355 23.570477 -2.1105368 0 100 0
6.1912155 21.734859 -2.3361003 0 100 0
8.0316668 22.98218 -2.0447769 0 100 0
20.366631 26.224674 1.2425027 0 100 0
24.322071 25.739143 -2.8100815 0 100 0
41.734894 7.5622497 0.082586847 0 100 0
41.718567 7.6743288 1.3419 0 100 0
33.340458 21.559601 -1.493655 0 100 0
42.042847 -1.1260922 -0.4315902 0 100 0
24.211391 25.761379 -0.39895201 0 100 0
16.17898 25.966259 0.15158854 0 100 0
21.71088 26.136869 2.2343516 0 100 0
25.94768 25.32715 -1.4666508 0 100 0
36.682922 18.373653 2.2734063 0 100 0
21.744787 26.133335 -2.3070307 0 100 0
26.104465 25.2799 -0.80357796 0 100 0
31.854935 22.61154 2.0106328 0 100 0
39.870319 13.463462 -0.19747199 0 100 0
25.086452 25.585577 -1.7087792 0 100 0
36.762028 18.281874 -1.489761 0 100 0
41.719929 7.6649947 -1.4114907 0 100 0
42.073975 -0.42279845 0.27891666 0 100 0
16.406132 26.007486 -1.9545592 0 100 0
39.868057 13.46842 -2.0347972 0 100 0
41.878433 6.5770192 0.54268813 0 100 0
11.787407 24.805716 -1.9358475 0 100 0
29.337553 24.040916 -2.3047554 0 100 0
41.580784 8.4166565 -0.067937344 0 100 0
6.2781653 21.801205 2.1501734 0 100 0
5.5467763 21.243124 1.8808796 0 100 0
30.39333 23.489098 0.9966988 0 100 0
37.246399 17.719913 0.25772816 0 100 0
32.923645 21.890175 0.68702078 0 100 0
24.684319 25.666368 0.54140681 0 100 0
25.329142 25.513557 -2.647639 0 100 0
10.968175 24.489431 -0.32165074 0 100 0
28.111145 24.570139 -1.8924253 0 100 0
22.188553 26.087101 -0.39998969 0 100 0
24.011513 25.801537 -0.96153331 0 100 0
33.647537 21.316059 -0.80523908 0 100 0
23.940512 25.8158 0.39412996 0 100 0
7.3639064 22.56599 -0.070448987 0 100 0
6.3078589 21.82386 -0.51357967 0 100 0
38.126289 16.493034 2.0823727 0 100 0
42.000153 2.4234021 0.13359842 0 100 0
4.7645869 20.571762 -0.52134526 0 100 0
24.97097 25.608778 1.3183984 0 100 0
40.038845 13.094076 1.2812248 0 100 0
3.1436963 18.971354 2.296066 0 100 0
24.812977 25.640518 -0.68546951 0 100 0
38.960583 15.174665 0.20183636 0 100 0
4.372129 20.208891 -0.3839401 0 100 0
8.7017708 23.399826 0.7914533 0 100 0
22.19215 26.086727 -2.7052674 0 100 0
31.093632 23.106049 0.96962804 0 100 0
37.492241 17.386974 -0.75439411 0 100 0
42.056496 0.11517325 0.035433058 0 100 0
41.228924 9.8599663 -1.0556374 0 100 0
18.74741 26.234734 0.65777278 0 100 0
25.070908 25.588699 -2.7664535 0 100 0
16.422539 26.010466 0.06579335 0 100 0
23.961111 25.811661 1.8215282 0 100 0
37.101078 17.888514 -0.36345756 0 100 0
36.521919 18.56045 -2.2729363 0 100 0
41.513645 8.6920519 0.50720149 0 100 0
36.720387 18.330187 -1.3323764 0 100 0
22.354649 26.069799 0.51309824 0 100 0
23.450806 25.914183 1.6824229 0 100 0
13.960533 25.498949 0.70505166 0 100 0
11.447611 24.674526 0.4523423 0 100 0
42.049065 0.26297125 0.086783268 0 100 0
3.6496377 19.536594 -1.5897738 0 100 0
23.134422 25.977743 -2.5105176 0 100 0
16.181223 25.966667 -1.1656442 0 100 0
19.790051 26.230072 0.51585931 0 100 0
33.416031 21.499666 -0.069678932 0 100 0
9.0033026 23.550646 -1.4706835 0 100 0
20.658434 26.221945 -2.186759 0 100 0
6.3394661 21.84798 -1.9254506 0 100 0
22.653681 26.038643 -1.3972745 0 100 0
35.011948 20.1306 0.70769644 0 100 0
38.8689 15.333883 0.82774788 0 100 0
37.806038 16.944553 -1.4569852 0 100 0
35.888969 19.288704 1.4664569 0 100 0
2.8624239 18.657114 0.73840785 0 100 0
19.145517 26.236107 -0.61353058 0 100 0
21.867836 26.120516 0.34864175 0 100 0
11.35693 24.639519 -1.9003592 0 100 0
31.679285 22.725636 1.2384943 0 100 0
42.0131 0.97848606 -0.011190296 0 100 0
36.549267 18.528723 1.1212599 0 100 0
8.7028065 23.400471 0.44937977 0 100 0
34.482208 20.63913 -1.4713341 0 100 0
4.1775775 20.029005 0.080852993 0 100 0
3.4696212 19.335478 -1.8007081 0 100 0
24.820015 25.639107 -1.2503228 0 100 0
3.95257 19.820959 -2.0920577 0 100 0
13.19042 25.282501 2.2570393 0 100 0
27.821939 24.688061 -1.3407164 0 100 0
4.0150261 19.878708 -1.4522598 0 100 0
4.8124833 20.616047 1.4904997 0 100 0
30.136234 23.623472 0.50177473 0 100 0
29.382317 24.017519 0.88605869 0 100 0
25.317703 25.517006 1.2465224 0 100 0
30.911921 23.218048 1.2503812 0 100 0
11.625742 24.743299 1.4632132 0 100 0
3.0918636 18.913448 0.73525703 0 100 0
10.338404 24.21694 -2.1426272 0 100 0
42.005188 2.5371361 0.13004161 0 100 0
28.813534 24.283745 0.99096489 0 100 0
16.330482 25.993755 -0.88661069 0 100 0
40.533035 11.960331 0.79782242 0 100 0
8.5037642 23.276417 -0.068714954 0 100 0
38.930614 15.226709 -0.41831297 0 100 0
30.331354 23.52149 1.0292566 0 100 0
28.665636 24.344051 2.3733559 0 100 0
42.045383 0.33622047 0.88117552 0 100 0
17.934025 26.165358 2.0387316 0 100 0
37.410896 17.501659 1.0183487 0 100 0
41.453186 8.9400759 1.6558772 0 100 0
36.315163 18.800325 0.096778452 0 100 0
42.009132 2.6263077 0.47278005 0 100 0
38.249062 16.319939 -2.1488268 0 100 0
39.143852 14.856413 -1.0577548 0 100 0
8.0562897 22.997524 -1.6362469 0 100 0
38.502174 15.963074 2.2363858 0 100 0
10.125594 24.110735 0.6060217 0 100 0
21.895851 26.117598 -2.8459153 0 100 0
34.059513 20.989321 -2.2895744 0 100 0
27.059671 24.992025 -2.8178046 0 100 0
41.841911 6.8276944 0.39961606 0 100 0
4.2555313 20.101084 -1.8867648 0 100 0
24.164566 25.770786 -2.2284379 0 100 0
33.397919 21.514032 0.2731283 0 100 0
12.169186 24.95311 1.4031818 0 100 0
35.720589 19.45034 -1.8201978 0 100 0
15.014622 25.754932 0.92345303 0 100 0
3.6615698 19.549923 0.37766135 0 100 0
5.9689493 21.565258 -2.2694447 0 100 0
23.345699 25.935299 -2.6620979 0 100 0
31.242769 23.009178 1.9081466 0 100 0
41.372395 9.2714615 0.85909718 0 100 0
8.7219839 23.410252 -1.2009457 0 100 0
26.57798 25.137197 0.64982653 0 100 0
34.606457 20.519854 0.57014287 0 100 0
20.493334 26.22349 0.70614016 0 100 0
4.1050825 19.961975 -0.086641416 0 100 0
35.8302 19.345114 1.7395197 0 100 0
34.958061 20.182327 0.24388231 0 100 0
37.597572 17.238466 2.178731 0 100 0
40.51598 12.009543 0.86281705 0 100 0
35.715786 19.454948 -1.8015264 0 100 0
10.671819 24.375015 1.254238 0 100 0
10.855762 24.446032 -1.8328463 0 100 0
23.035679 25.997581 -2.0302198 0 100 0
4.9526277 20.745626 -0.58490992 0 100 0
40.385326 12.334637 -0.27680671 0 100 0
41.985889 5.4962883 -1.4252611 0 100 0
38.021679 16.640522 1.9719216 0 100 0
42.075779 -0.26849699 0.69649702 0 100 0
3.9887476 19.85441 -1.9568777 0 100 0
41.414043 9.100606 0.51636517 0 100 0
29.660137 23.872313 1.6710979 0 100 0
27.341782 24.883842 -0.27323782 0 100 0
18.844713 26.238922 1.5965155 0 100 0
20.66993 26.221838 -0.94577718 0 100 0
10.312962 24.204243 -1.3398558 0 100 0
4.685441 20.498585 1.9328291 0 100 0
7.0699091 22.382755 -0.42673218 0 100 0
20.788858 26.220724 1.9489038 0 100 0
14.813951 25.718513 0.5806486 0 100 0
25.261717 25.533878 -0.12878558 0 100 0
39.930115 13.332397 -1.7437673 0 100 0
25.561941 25.443399 0.22555254 0 100 0
41.989292 2.1780047 -0.63039559 0 100 0
41.7542 7.4297571 1.2834626 0 100 0
37.78289 16.977186 1.3622094 0 100 0
27.168329 24.954567 -0.52417696 0 100 0
41.143559 10.198455 1.2112975 0 100 0
28.509289 24.407799 0.052516114 0 100 0
16.4872 26.0222 0.54249287 0 100 0
2.8951435 18.693668 -0.2019648 0 100 0
20.739143 26.221189 1.7996073 0 100 0
29.314125 24.053162 1.7721456 0 100 0
40.046124 13.078123 0.46811697 0 100 0
29.77327 23.813185 -2.5051146 0 100 0
39.073807 14.97805 2.1103973 0 100 0
21.381653 26.171171 2.6335564 0 100 0
17.564144 26.133808 -1.8527203 0 100 0
15.538933 25.850094 -2.1870561 0 100 0
17.256996 26.107609 -1.0364892 0 100 0
23.164083 25.971786 1.8394762 0 100 0
32.580444 22.140276 -0.034034725 0 100 0
20.384567 26.224508 -1.41923 0 100 0
11.432879 24.668842 -0.23001942 0 100 0
25.679501 25.40797 1.7750834 0 100 0
31.021105 23.153164 -2.0327609 0 100 0
34.284798 20.810652 2.0765133 0 100 0
38.909351 15.263632 -0.54574949 0 100 0
4.7313352 20.541018 1.2287054 0 100 0
40.542652 11.932576 1.7780781 0 100 0
25.616947 25.426823 1.0466082 0 100 0
22.074539 26.09898 1.3165287 0 100 0
22.878983 26.015169 1.4377981 0 100 0
2.8028135 18.590519 2.1313159 0 100 0
10.60163 24.347916 0.27570954 0 100 0
41.296124 9.584322 0.89788347 0 100 0
40.569969 11.853732 -0.71981055 0 100 0
31.387957 22.914869 -0.049899731 0 100 0
2.406476 18.147728 -0.64101815 0 100 0
32.66729 22.083866 -2.4355378 0 100 0
34.898853 20.239166 2.374969 0 100 0
16.588215 26.040533 0.23719019 0 100 0
36.829536 18.203552 1.8737161 0 100 0
32.647533 22.096699 1.2273052 0 100 0
38.461636 16.020233 0.70883226 0 100 0
38.143673 16.468529 -1.4710076 0 100 0
21.13657 26.196705 1.331457 0 100 0
5.417675 21.144613 2.0094507 0 100 0
10.482478 24.288843 0.041525744 0 100 0
41.643097 8.1610527 -1.3185552 0 100 0
29.501511 23.955223 -0.70056874 0 100 0
31.682171 22.723759 0.84301043 0 100 0
34.178059 20.895304 1.5559243 0 100 0
5.0089302 20.797686 0.21086991 0 100 0
42.003128 1.1768587 -0.51074755 0 100 0
41.621414 8.2499924 1.2097188 0 100 0
24.150122 25.773689 1.0803691 0 100 0
14.543783 25.662878 0.80856425 0 100 0
7.3563833 22.561302 0.17816019 0 100 0
9.1671314 23.632406 -1.8036376 0 100 0
10.579567 24.337296 0.63557774 0 100 0
37.021412 17.980938 -1.8801676 0 100 0
10.228381 24.162033 -0.66007382 0 100 0
41.868698 6.6438532 -0.57277292 0 100 0
3.1021194 18.924904 -0.82346898 0 100 0
33.0177 21.815578 1.8410995 0 100 0
37.509987 17.361952 -0.72145337 0 100 0
10.046152 24.071091 -1.4163418 0 100 0
26.624445 25.123192 -1.2909257 0 100 0
35.492039 19.669735 0.98345309 0 100 0
23.542236 25.895811 2.2200882 0 100 0
24.036072 25.796602 0.99007475 0 100 0
42.036339 3.2411029 -0.94734013 0 100 0
38.19722 16.39303 -0.33128822 0 100 0
23.359497 25.932526 -2.7728803 0 100 0
38.636696 15.737114 1.2090873 0 100 0
32.031612 22.496778 -2.5544043 0 100 0
13.766304 25.444359 1.7832317 0 100 0
39.816525 13.581373 1.7263128 0 100 0
27.164886 24.955971 1.9516567 0 100 0
12.450249 25.061621 0.16612275 0 100 0
24.5884 25.685637 1.7019491 0 100 0
40.92622 10.825661 -1.3701687 0 100 0
8.1885042 23.079929 -2.1706231 0 100 0
16.166359 25.963968 0.038071383 0 100 0
18.081125 26.177902 1.7257218 0 100 0
9.3986721 23.747957 1.5129639 0 100 0
12.59724 25.11578 1.1808046 0 100 0
39.514206 14.213276 1.6530243 0 100 0
3.0212359 18.834541 -0.60707438 0 100 0
42.031895 3.1405082 0.89488631 0 100 0
41.6978 7.8168545 -0.66274315 0 100 0
27.797245 24.698132 0.1459199 0 100 0
3.134706 18.961309 -2.0442932 0 100 0
14.828049 25.721071 -1.5462586 0 100 0
16.096539 25.951298 0.55806202 0 100 0
36.195141 18.939571 0.1531297 0 100 0
20.319973 26.225111 1.7247795 0 100 0
19.106346 26.236473 -0.5075686 0 100 0
7.4071708 22.592957 0.1912386 0 100 0
24.484016 25.706608 2.8362198 0 100 0
38.447186 16.040604 -2.2185693 0 100 0
26.398895 25.191166 1.7543995 0 100 0
32.459831 22.218618 1.0673892 0 100 0
41.832634 6.8913603 -0.53679746 0 100 0
37.599915 17.235165 0.19031432 0 100 0
2.795778 18.582659 -1.6872617 0 100 0
13.494564 25.367983 2.0035391 0 100 0
38.31337 16.229275 -0.99924946 0 100 0
20.731112 26.221266 -0.62703836 0 100 0
29.088358 24.171165 1.0037479 0 100 0
34.302601 20.79653 -0.0084267557 0 100 0
42.011482 -1.8346815 0.37733683 0 100 0
27.434011 24.846237 -0.055717841 0 100 0
18.672037 26.228308 -0.21767378 0 100 0
33.054321 21.786535 2.4681199 0 100 0
41.92907 6.2294407 -0.40844828 0 100 0
14.419768 25.628023 0.20878504 0 100 0
41.311485 9.5212965 -0.9950189 0 100 0
34.040726 21.004223 -2.3103476 0 100 0
28.209892 24.529877 1.7376029 0 100 0
27.828934 24.685211 0.55303085 0 100 0
27.390858 24.863832 1.1729823 0 100 0
6.5839691 22.034546 -0.67688739 0 100 0
12.374323 25.032307 -1.7453325 0 100 0
7.8075218 22.84248 0.94934595 0 100 0
9.2612724 23.67939 2.0478292 0 100 0
4.9580717 20.750662 0.37192023 0 100 0
8.874589 23.48641 -1.9893266 0 100 0
38.526428 15.928604 -1.5427245 0 100 0
5.3268509 21.07531 0.29284197 0 100 0
29.107662 24.161072 -2.0036712 0 100 0
41.723461 7.6407232 -0.15734151 0 100 0
33.759338 21.22739 2.4239261 0 100 0
24.141991 25.775322 2.4223976 0 100 0
11.934559 24.862526 -0.11586823 0 100 0
32.422462 22.242897 0.88493836 0 100 0
38.750469 15.539545 1.459673 0 100 0
42.030285 3.1041694 -0.72020054 0 100 0
40.628559 11.684661 -1.7994133 0 100 0
40.612762 11.730254 -1.7297366 0 100 0
27.48102 24.827068 1.1654375 0 100 0
27.329449 24.888872 -1.1680859 0 100 0
39.57214 14.11266 0.079254515 0 100 0
41.83918 6.8464413 1.2565329 0 100 0
12.429905 25.053764 -0.723068 0 100 0
14.992023 25.750832 -0.69334078 0 100 0
5.0761976 20.85988 -2.2531698 0 100 0
38.849442 15.367676 1.5434642 0 100 0
21.098293 26.200691 2.939775 0 100 0
27.436022 24.845417 -1.8850859 0 100 0
33.729477 21.251072 -2.3482106 0 100 0
19.808479 26.2299 -0.93042344 0 100 0
7.895678 22.897423 1.6874571 0 100 0
7.1578398 22.437559 1.342304 0 100 0
28.104958 24.572662 -0.90604281 0 100 0
23.792557 25.845524 -1.74212 0 100 0
3.1678143 18.998299 0.85700035 0 100 0
22.313665 26.074068 1.2925317 0 100 0
36.265331 18.858137 -0.52966839 0 100 0
36.899246 18.122677 -0.35382634 0 100 0
28.369026 24.464991 -2.0822821 0 100 0
35.487709 19.673895 0.32236129 0 100 0
9.2143421 23.655968 -1.5747656 0 100 0
27.520489 24.81098 2.2260156 0 100 0
20.741558 26.221165 -0.89609534 0 100 0
37.073818 17.920139 0.49058124 0 100 0
19.158249 26.235987 1.9321924 0 100 0
2.5703611 18.330822 -0.91662222 0 100 0
32.665211 22.085215 2.0185177 0 100 0
5.8367629 21.464396 1.2612833 0 100 0
15.785362 25.894821 -2.3532829 0 100 0
34.457325 20.66301 -0.23075537 0 100 0
40.296803 12.528666 -1.6199696 0 100 0
27.891399 24.65974 1.2561514 0 100 0
36.243793 18.883125 0.02281874 0 100 0
31.023016 23.15192 2.2665787 0 100 0
23.096462 25.985371 1.0604606 0 100 0
15.453771 25.834637 -1.6908903 0 100 0
41.831188 6.9012995 -0.51525468 0 100 0
38.293304 16.257559 0.30557075 0 100 0
19.257511 26.235058 0.43868598 0 100 0
17.794928 26.153494 1.3498611 0 100 0
3.2638183 19.105555 -1.1361338 0 100 0
30.418089 23.476158 -2.2718782 0 100 0
6.1751318 21.722586 0.96985257 0 100 0
7.9570012 22.935642 0.39237741 0 100 0
5.3148985 21.066191 0.077909812 0 100 0
2.6020079 18.366179 -0.69357181 0 100 0
15.217239 25.79171 0.35487744 0 100 0
31.387833 22.914948 2.0519712 0 100 0
37.728134 17.05439 0.50317013 0 100 0
13.854923 25.469265 -0.42537555 0 100 0
35.77446 19.398624 0.69012719 0 100 0
19.726566 26.230667 0.098556466 0 100 0
36.689186 18.366385 -0.034616563 0 100 0
7.4167099 22.598902 0.95279312 0 100 0
20.270567 26.225574 -1.3343773 0 100 0
36.050385 19.107517 1.5791227 0 100 0
16.531425 26.030226 -0.33472514 0 100 0
32.156864 22.415417 0.053816512 0 100 0
39.869869 13.464448 0.37046838 0 100 0
13.991744 25.507723 -0.0041743717 0 100 0
23.326935 25.939068 0.8612929 0 100 0
18.642344 26.225775 0.79616714 0 100 0
22.183275 26.087654 2.6102595 0 100 0
24.691456 25.664932 -1.641414 0 100 0
3.1753023 19.006664 0.51537162 0 100 0
31.182411 23.048382 1.4881554 0 100 0
25.678444 25.408289 1.6451236 0 100 0
30.041576 23.672947 -0.24842562 0 100 0
30.46137 23.453537 2.2124567 0 100 0
41.966789 5.8762674 -0.85774297 0 100 0
41.975945 5.6939936 -1.3423547 0 100 0
32.454865 22.221848 -1.8840239 0 100 0
27.262455 24.916191 -1.9708743 0 100 0
36.131817 19.013039 0.16174875 0 100 0
23.55187 25.893879 -0.039445244 0 100 0
33.741852 21.241259 1.4440606 0 100 0
25.712059 25.398157 0.33028096 0 100 0
10.01503 24.055559 -1.0823054 0 100 0
18.612469 26.223225 -1.2568984 0 100 0
36.432571 18.664108 -0.32305393 0 100 0
31.639385 22.751553 0.1579224 0 100 0
35.003235 20.138964 1.7431674 0 100 0
20.848333 26.220169 -1.1314018 0 100 0
14.614351 25.682285 -0.51667702 0 100 0
29.754679 23.822899 -2.5915461 0 100 0
31.126343 23.084801 0.74289602 0 100 0
8.5987263 23.335602 0.6342954 0 100 0
23.651745 25.873812 -1.6946652 0 100 0
3.6828113 19.571537 0.74047583 0 100 0
41.548309 8.5498524 1.6461939 0 100 0
9.4147587 23.755987 0.67813134 0 100 0
17.296007 26.110935 -0.21170732 0 100 0
33.257835 21.62513 -0.98851907 0 100 0
29.739269 23.830954 1.4041301 0 100 0
29.96978 23.710474 -2.6052802 0 100 0
31.373936 22.923979 2.1059766 0 100 0
21.014122 26.209461 -0.70398504 0 100 0
18.245176 26.191896 -1.3297176 0 100 0
41.991329 2.2240667 -0.56383348 0 100 0
42.032902 4.5608444 -0.92076147 0 100 0
10.56785 24.33145 0.52378726 0 100 0
31.220232 23.023815 -2.3300526 0 100 0
40.20163 12.737265 1.1162229 0 100 0
22.498615 26.054798 -2.5288742 0 100 0
42.050056 0.24320668 0.40028554 0 100 0
4.0203538 19.883635 0.88625515 0 100 0
15.139147 25.777533 -1.4433554 0 100 0
6.6392894 22.076759 2.2960827 0 100 0
35.943626 19.231375 0.13984565 0 100 0
23.552074 25.893837 2.2325587 0 100 0
2.3247929 18.056473 -0.73908055 0 100 0
41.989376 1.4506189 0.66587102 0 100 0
6.126646 21.685589 1.6908672 0 100 0
36.542713 18.536318 -1.276544 0 100 0
5.6955023 21.356607 -1.776363 0 100 0
37.360756 17.572351 0.18049644 0 100 0
22.297455 26.075756 -2.4025304 0 100 0
5.8619337 21.483603 0.5825491 0 100 0
17.129339 26.09672 -0.32699591 0 100 0
4.4529958 20.283661 1.7652206 0 100 0
17.544764 26.132153 -0.86332691 0 100 0
9.4589186 23.778027 2.0259442 0 100 0
42.059158 0.062143281 0.34356779 0 100 0
21.251921 26.184689 -1.3911701 0 100 0
41.897446 6.4465241 -0.84480238 0 100 0
10.334805 24.215145 1.5263505 0 100 0
38.737614 15.561867 -2.1904988 0 100 0
9.697834 23.897259 -0.80526233 0 100 0
28.885029 24.254593 2.4829199 0 100 0
41.992195 5.3707237 -0.042890485 0 100 0
15.05304 25.761906 1.0409677 0 100 0
38.01709 16.646994 -0.4308266 0 100 0
42.060101 3.777842 -0.87416667 0 100 0
36.377014 18.728558 1.6506215 0 100 0
25.479279 25.468313 2.1223359 0 100 0
11.049881 24.520975 -0.029251684 0 100 0
41.873535 6.6106491 -0.59115982 0 100 0
41.946972 6.1065679 -1.6048892 0 100 0
17.989267 26.170069 -1.5476494 0 100 0
39.830971 13.549702 -0.85893524 0 100 0
41.649548 8.1345797 1.5937595 0 100 0
29.616693 23.89502 1.1884254 0 100 0
40.075001 13.014824 -0.27655384 0 100 0
36.750282 18.295502 2.2256596 0 100 0
4.9421172 20.735909 0.055728897 0 100 0
41.061203 10.436104 -0.15947112 0 100 0
41.227913 9.8641148 1.6432437 0 100 0
32.654121 22.092419 -0.49328542 0 100 0
3.8436334 19.720236 -0.2577824 0 100 0
29.041916 24.190622 -0.24966502 0 100 0
6.5302258 21.993538 0.82608962 0 100 0
7.9235268 22.91478 -2.0152791 0 100 0
37.157063 17.823559 -1.6496612 0 100 0
41.950626 6.081491 -0.12173204 0 100 0
4.7297463 20.539549 0.79848349 0 100 0
5.8751054 21.493652 1.2564137 0 100 0
9.6100025 23.853426 1.5890554 0 100 0
7.7918854 22.832733 -2.215611 0 100 0
4.4373188 20.269165 2.1352723 0 100 0
29.259975 24.081467 -2.596096 0 100 0
29.052094 24.186472 2.5729735 0 100 0
15.231783 25.794346 0.14625058 0 100 0
30.226103 23.576502 -0.85888463 0 100 0
18.075619 26.177435 -0.54069471 0 100 0
16.527147 26.029451 -0.69269955 0 100 0
42.056969 4.0819097 0.081289545 0 100 0
28.938559 24.232765 -1.9833115 0 100 0
41.826153 6.935873 -1.5460049 0 100 0
4.7925587 20.597626 -1.6919558 0 100 0
11.472144 24.683998 1.465642 0 100 0
15.410863 25.826851 -0.66244155 0 100 0
6.2603412 21.787603 -1.2782526 0 100 0
13.650809 25.411898 1.6415496 0 100 0
32.068115 22.473064 -0.36844906 0 100 0
41.082539 10.374548 -0.054975912 0 100 0
5.2625599 21.026253 -2.0998654 0 100 0
7.8367572 22.860701 0.1448099 0 100 0
41.861565 6.6927805 1.3591287 0 100 0
3.9372568 19.806801 0.89788425 0 100 0
29.65102 23.877079 1.1346326 0 100 0
41.985909 1.5195509 0.94378036 0 100 0
22.517551 26.052826 0.90605795 0 100 0
42.029182 4.6348186 1.4574466 0 100 0
19.507122 26.232721 1.2342669 0 100 0
28.289974 24.497223 1.7983313 0 100 0
30.186819 23.597036 0.59578025 0 100 0
28.396784 24.453672 1.2809255 0 100 0
32.935814 21.880522 1.8641425 0 100 0
2.6145234 18.380159 -2.0668261 0 100 0
34.691227 20.43848 1.0087271 0 100 0
15.273359 25.801893 0.65451813 0 100 0
17.916832 26.163891 -0.69235414 0 100 0
4.3831854 20.219114 -0.92187011 0 100 0
4.0084462 19.872625 0.11183146 0 100 0
34.068615 20.982103 1.05949 0 100 0
7.3677607 22.568394 0.41374457 0 100 0
21.569906 26.151558 2.4647515 0 100 0
3.5965338 19.477266 -1.0380797 0 100 0
40.591457 11.791731 0.86286205 0 100 0
2.6694505 18.441525 0.045573354 0 100 0
34.942711 20.197063 0.62611765 0 100 0
9.3058243 23.701622 -2.064723 0 100 0
25.306057 25.520515 2.1047356 0 100 0
41.964462 5.9225116 1.227375 0 100 0
8.1743555 23.071112 -1.4993625 0 100 0
41.016922 10.563904 0.8487556 0 100 0
15.700047 25.879335 1.1304108 0 100 0
27.105743 24.978142 -2.6817529 0 100 0
21.555975 26.153011 -2.2491014 0 100 0
5.8717394 21.491083 -1.5997033 0 100 0
9.1067629 23.60228 -1.3448842 0 100 0
29.975567 23.707449 -1.7666388 0 100 0
36.538601 18.541092 0.13566604 0 100 0
32.645298 22.098148 -1.5737317 0 100 0
29.802216 23.798054 -0.52746588 0 100 0
6.9743261 22.323181 -1.0152489 0 100 0
40.503506 12.045542 -1.2547609 0 100 0
18.625099 26.224304 0.23845923 0 100 0
10.846643 24.442509 -1.1291989 0 100 0
23.453724 25.913593 1.3291563 0 100 0
39.001759 15.103167 -1.7117355 0 100 0
28.349617 24.472906 -2.7218091 0 100 0
41.759552 7.3930321 -1.1856707 0 100 0
3.18542 19.017967 1.5410984 0 100 0
41.949165 6.0915198 -1.356109 0 100 0
13.389183 25.338366 1.4875499 0 100 0
10.486154 24.290678 2.2231946 0 100 0
6.4284472 21.915876 -1.6657071 0 100 0
2.391489 18.130985 -1.5323943 0 100 0
38.867939 15.33555 -1.5069888 0 100 0
26.96591 25.020285 -0.56071371 0 100 0
37.921871 16.781242 0.082767829 0 100 0
39.557533 14.138033 1.2341707 0 100 0
7.4029288 22.590313 -0.5223912 0 100 0
32.367531 22.278576 2.116612 0 100 0
25.558361 25.444479 -1.1941798 0 100 0
28.578472 24.379589 -1.34512 0 100 0
3.957252 19.825289 2.3668547 0 100 0
30.260628 23.558456 1.4689468 0 100 0
25.755814 25.384972 -1.0476836 0 100 0
37.693081 17.103807 1.6076819 0 100 0
34.912388 20.226177 1.2773603 0 100 0
38.357834 16.166588 -0.9133004 0 100 0
34.745182 20.386684 2.3634391 0 100 0
9.5049191 23.800983 -0.28849298 0 100 0
33.253548 21.628532 -1.4392875 0 100 0
15.731729 25.885086 1.4141353 0 100 0
42.061012 4.0014949 0.64994991 0 100 0
42.030586 3.1109636 0.74538273 0 100 0
27.942787 24.638786 -2.602145 0 100 0
4.5797954 20.400902 -2.3324952 0 100 0
19.218927 26.235418 1.7827286 0 100 0
42.016071 2.7830138 -0.33741379 0 100 0
37.80225 16.949892 2.2939186 0 100 0
40.017609 13.140623 0.44409275 0 100 0
4.2182932 20.06665 0.059079453 0 100 0
35.037453 20.106121 0.57864499 0 100 0
41.978069 5.6517987 -0.65467185 0 100 0
41.017857 10.561216 -1.1784222 0 100 0
25.394384 25.493895 -2.6078193 0 100 0
30.379595 23.496277 0.73352641 0 100 0
33.469193 21.457502 -0.22996469 0 100 0
23.214729 25.961609 -1.1652489 0 100 0
38.378246 16.137802 -2.2461612 0 100 0
37.676533 17.127138 1.4223499 0 100 0
4.9440746 20.737719 0.54314291 0 100 0
7.9741211 22.946314 0.44826007 0 100 0
25.6611 25.413517 1.3092184 0 100 0
10.627283 24.357822 1.4984692 0 100 0
41.055157 10.453562 0.39057183 0 100 0
41.98653 2.1156206 -0.58855754 0 100 0
13.162911 25.274769 0.043332443 0 100 0
21.967442 26.110138 2.3069997 0 100 0
13.300828 25.313532 -0.41125059 0 100 0
22.648462 26.039186 -2.8377032 0 100 0
4.149281 20.002842 0.073374726 0 100 0
40.563545 11.87229 0.68180317 0 100 0
8.0683947 23.005072 -0.50701773 0 100 0
36.37962 18.72554 1.5276452 0 100 0
36.489574 18.597969 -1.1821762 0 100 0
29.306707 24.057041 -2.692857 0 100 0
19.146999 26.236094 -0.043987244 0 100 0
21.454021 26.16363 1.2241645 0 100 0
34.518986 20.603825 1.8353856 0 100 0
2.2803373 18.006805 0.59917414 0 100 0
11.89852 24.848614 -2.3425162 0 100 0
14.745621 25.706112 2.2871177 0 100 0
42.015408 -1.7460272 -0.570216 0 100 0
12.600029 25.116564 2.1787992 0 100 0
41.226017 9.8719006 1.1032711 0 100 0
23.324888 25.93948 0.6146735 0 100 0
23.552227 25.893805 1.2373948 0 100 0
30.696293 23.330748 -0.18650615 0 100 0
9.0589733 23.578428 1.3477852 0 100 0
5.0118027 20.800341 0.8898139 0 100 0
3.6119299 19.494467 -0.36618322 0 100 0
5.2472572 21.014576 -0.67256862 0 100 0
22.467209 26.058069 -2.8914323 0 100 0
23.111042 25.982441 -1.5216616 0 100 0
22.517906 26.05279 2.2718451 0 100 0
11.958263 24.871677 1.1880021 0 100 0
39.255146 14.663147 2.1361821 0 100 0
25.006735 25.601593 -0.66205335 0 100 0
28.003649 24.613972 -1.2891004 0 100 0
16.400244 26.00642 -0.21791157 0 100 0
5.4081006 21.13731 -2.0368247 0 100 0
3.6340384 19.519167 0.069912873 0 100 0
42.016632 0.90826797 0.92706466 0 100 0
4.5404902 20.364559 0.80939907 0 100 0
42.058601 0.073228031 0.69251257 0 100 0
26.139254 25.269415 -2.3464246 0 100 0
5.7453957 21.394678 0.44641244 0 100 0
9.0978975 23.597855 2.3141088 0 100 0
8.6059952 23.340134 -1.472268 0 100 0
32.981491 21.844297 -1.3473272 0 100 0
36.224899 18.905041 1.2262226 0 100 0
31.370752 22.926044 1.3830932 0 100 0
32.194832 22.390751 -0.14240699 0 100 0
34.230511 20.853703 -0.78525007 0 100 0
3.2646646 19.106499 0.17359933 0 100 0
31.216427 23.026287 0.42464176 0 100 0
41.203102 9.9658813 -0.61290479 0 100 0
13.814793 25.457989 1.5980369 0 100 0
17.217091 26.104204 -1.0962602 0 100 0
9.3288345 23.713104 0.090965897 0 100 0
42.030254 4.6135898 0.59276611 0 100 0
33.644562 21.31842 0.37931913 0 100 0
20.784863 26.220762 -1.877876 0 100 0
24.079918 25.787792 -0.98815137 0 100 0
16.409378 26.008076 0.35823241 0 100 0
21.886097 26.118614 -2.7570395 0 100 0
41.761391 7.380404 -0.24884227 0 100 0
35.561142 19.603401 -1.2913243 0 100 0
7.3631482 22.565519 2.0270648 0 100 0
39.253849 14.665398 -0.66795135 0 100 0
41.57037 8.4593811 -1.7655588 0 100 0
27.6404 24.762085 1.4097296 0 100 0
36.947266 18.066967 0.68334419 0 100 0
28.447432 24.43302 -2.0071387 0 100 0
41.763309 7.3672261 -1.3802979 0 100 0
41.969151 5.8292274 -0.17881402 0 100 0
3.9388814 19.808304 -1.9344482 0 100 0
19.786337 26.230106 -1.750712 0 100 0
2.6025119 18.366741 -2.085861 0 100 0
11.896515 24.847836 -0.2403556 0 100 0
26.378204 25.197401 0.14392018 0 100 0
33.845352 21.159172 0.84770095 0 100 0
17.397459 26.119589 1.2639062 0 100 0
3.6927967 19.58077 1.1952603 0 100 0
28.773832 24.299934 -2.025022 0 100 0
37.145988 17.836407 -1.8349128 0 100 0
17.005568 26.086163 -0.61891115 0 100 0
7.7810454 22.825977 -1.9142234 0 100 0
23.690706 25.865986 2.7551703 0 100 0
32.195965 22.390018 -1.2060152 0 100 0
36.736816 18.311125 2.2772336 0 100 0
38.698006 15.63065 1.9806894 0 100 0
26.986912 25.013954 -1.7580322 0 100 0
5.9904804 21.581688 0.13682361 0 100 0
4.2565985 20.10207 1.769888 0 100 0
35.030701 20.112598 0.73552382 0 100 0
21.713285 26.13662 -1.5439808 0 100 0
2.4301064 18.174129 -2.1828537 0 100 0
15.924442 25.920063 1.820137 0 100 0
18.898415 26.23842 0.055522066 0 100 0
42.021587 -1.6063833 0.30673647 0 100 0
6.1811533 21.72718 1.6432657 0 100 0
10.746738 24.40394 0.29576606 0 100 0
3.7384186 19.622953 0.77572644 0 100 0
8.9896736 23.543846 0.7188555 0 100 0
26.683643 25.105354 -0.47465783 0 100 0
41.156387 10.157511 -0.9465248 0 100 0
25.178675 25.558905 -1.4076759 0 100 0
30.048452 23.669353 -0.66683608 0 100 0
9.9348707 24.015556 0.7614612 0 100 0
28.883081 24.255388 -0.19353856 0 100 0
5.1065979 20.887991 -2.0839272 0 100 0
26.784214 25.075043 -1.8785567 0 100 0
5.4127283 21.140839 1.0831136 0 100 0
42.004463 1.1503694 -0.95502174 0 100 0
34.243847 20.843128 -0.28249931 0 100 0
40.238255 12.656993 -0.35590461 0 100 0
39.273788 14.630774 1.6223161 0 100 0
37.135723 17.848318 0.11522934 0 100 0
3.6753526 19.564642 0.45482498 0 100 0
22.904135 26.012548 -0.93411291 0 100 0
25.043812 25.594143 0.72233027 0 100 0
6.5399795 22.00098 -2.2453504 0 100 0
38.288441 16.264418 -1.7790707 0 100 0
30.237373 23.570612 -2.6754403 0 100 0
30.941952 23.202351 -0.30476141 0 100 0
26.854904 25.053738 -0.9672569 0 100 0
33.678963 21.291136 0.23532167 0 100 0
7.6559553 22.748013 0.00073820259 0 100 0
9.7181034 23.907375 2.351531 0 100 0
9.3238058 23.710594 1.1048726 0 100 0
5.6166697 21.296453 0.12894227 0 100 0
4.1426859 19.996742 0.26483643 0 100 0
15.725322 25.883923 1.0251669 0 100 0
40.215664 12.706511 -1.2082388 0 100 0
40.556595 11.89233 -0.18644904 0 100 0
39.842152 13.525198 2.0355148 0 100 0
34.744759 20.387089 -0.5090282 0 100 0
39.367889 14.46736 1.3927362 0 100 0
39.658596 13.927528 -1.3061593 0 100 0
40.747234 11.342178 -0.80840796 0 100 0
23.791412 25.845753 1.4865233 0 100 0
32.329342 22.303383 0.81428224 0 100 0
41.211369 9.9319859 0.44953877 0 100 0
20.522497 26.223215 -0.39622951 0 100 0
41.991394 5.3867536 -1.1724781 0 100 0
20.493458 26.223488 -0.92921805 0 100 0
20.98711 26.212276 -1.6195911 0 100 0
40.660301 11.593054 -0.20616455 0 100 0
26.677084 25.107328 0.66439807 0 100 0
21.95277 26.111668 -1.2351847 0 100 0
40.733002 11.383242 0.24464719 0 100 0
23.301123 25.944254 2.6599524 0 100 0
11.973494 24.87756 0.46521625 0 100 0
41.304237 9.5510378 -0.11709305 0 100 0
5.2215948 20.994318 -1.7420501 0 100 0
15.965951 25.927597 -1.849694 0 100 0
3.657217 19.545059 0.27073479 0 100 0
42.037163 3.2597432 1.0981008 0 100 0
13.276874 25.306799 0.1092297 0 100 0
3.6153245 19.498259 -0.7530033 0 100 0
26.117662 25.275921 -2.4540787 0 100 0
37.053001 17.944288 -0.24576968 0 100 0
38.549576 15.888407 0.47450042 0 100 0
3.5776601 19.456179 0.089460477 0 100 0
10.827003 24.434929 -2.1218207 0 100 0
11.075905 24.531021 -0.67552274 0 100 0
39.900818 13.396608 0.39625627 0 100 0
39.994942 13.190308 -2.0852389 0 100 0
42.008537 2.6128778 0.13793114 0 100 0
6.5126243 21.980106 -1.1975963 0 100 0
3.496424 19.365423 2.3695877 0 100 0
12.69334 25.142792 1.9136884 0 100 0
18.820169 26.239151 1.7405214 0 100 0
14.719509 25.701374 -1.6724331 0 100 0
16.827946 26.071012 -1.9373056 0 100 0
21.382387 26.171095 2.3738065 0 100 0
42.019245 4.8326173 0.80708647 0 100 0
16.246544 25.978523 1.9957149 0 100 0
16.207857 25.9715 1.1274996 0 100 0
23.27742 25.949017 2.0263638 0 100 0
7.1066065 22.405628 1.752298 0 100 0
11.359373 24.640461 1.4174289 0 100 0
7.8476105 22.867466 2.1986806 0 100 0
8.3102083 23.155781 -1.1052251 0 100 0
4.4383574 20.270126 1.0592548 0 100 0
42.00518 1.1360744 0.218904 0 100 0
11.363676 24.642124 -0.25263229 0 100 0
34.581654 20.543665 1.5160419 0 100 0
26.049181 25.29656 -1.7465783 0 100 0
39.03701 15.041948 -0.11380737 0 100 0
32.942818 21.874969 -1.3344032 0 100 0
27.495506 24.821163 -1.6718349 0 100 0
8.3671341 23.191261 -0.15381056 0 100 0
15.304237 25.807499 -1.469332 0 100 0
42.015816 2.7772942 0.60747355 0 100 0
23.398249 25.924742 2.283252 0 100 0
40.691826 11.502076 0.039234709 0 100 0
5.8403196 21.46711 -1.2919482 0 100 0
41.864944 6.6695795 -1.2651906 0 100 0
18.978796 26.237667 -0.51755708 0 100 0
23.568251 25.890589 -2.5536368 0 100 0
13.575148 25.390633 -2.1191282 0 100 0
42.010971 -1.8462541 0.39375353 0 100 0
4.528296 20.353283 1.5828491 0 100 0
36.574097 18.499908 -0.71119225 0 100 0
12.847589 25.186146 0.15560713 0 100 0
4.4112873 20.245096 -1.3661104 0 100 0
8.2171612 23.097792 -0.64171374 0 100 0
35.290661 19.86305 1.1385921 0 100 0
8.4013329 23.212578 1.6176986 0 100 0
40.805557 11.173883 -1.3329445 0 100 0
2.756959 18.539289 -1.4450331 0 100 0
37.313068 17.639587 2.173192 0 100 0
17.505846 26.128834 -1.4492161 0 100 0
36.839249 18.19228 0.4106037 0 100 0
8.2257528 23.103148 -0.56932312 0 100 0
24.7761 25.647928 0.44698942 0 100 0
41.629784 8.2156401 -0.60575074 0 100 0
8.9799862 23.539011 -2.2739034 0 100 0
36.3522 18.757353 -1.6924745 0 100 0
22.973854 26.005285 -0.34343499 0 100 0
38.399925 16.107243 0.45040649 0 100 0
22.695251 26.034313 1.1471062 0 100 0
21.356253 26.173817 2.1672015 0 100 0
2.8377466 18.629545 -0.90341556 0 100 0
11.574192 24.723396 0.86755294 0 100 0
24.596985 25.683914 2.3867638 0 100 0
32.523083 22.177536 -2.2798848 0 100 0
38.149517 16.460285 -1.9175978 0 100 0
38.873154 15.326494 1.5283831 0 100 0
7.8111296 22.844727 -0.18756816 0 100 0
6.8842173 22.263649 -1.6262814 0 100 0
42.00285 2.484344 0.7543484 0 100 0
37.964634 16.720951 0.95473129 0 100 0
30.791834 23.280813 -0.13500077 0 100 0
3.5608706 19.437422 1.7053617 0 100 0
25.033188 25.596279 0.75960064 0 100 0
40.849274 11.047714 1.9387851 0 100 0
21.47291 26.161661 2.2321312 0 100 0
37.664043 17.144749 -1.8938935 0 100 0
4.5493999 20.372799 1.1788651 0 100 0
11.279726 24.609711 1.5415633 0 100 0
9.0636873 23.580782 -1.9977461 0 100 0
34.729942 20.401318 2.3013878 0 100 0
7.7669048 22.817165 2.3851779 0 100 0
11.632898 24.746063 -2.2060471 0 100 0
42.053715 0.17042449 -0.34522933 0 100 0
42.060307 4.0155654 -0.37208405 0 100 0
41.974285 1.8389535 -1.0051239 0 100 0
11.990625 24.884172 0.95152932 0 100 0
22.156746 26.090416 1.4008387 0 100 0
42.051514 4.1905465 1.2386792 0 100 0
32.283955 22.332863 -1.990034 0 100 0
38.239853 16.332918 0.48947895 0 100 0
41.040787 10.495043 -1.6499541 0 100 0
40.535156 11.954197 0.85838568 0 100 0
3.3464117 19.197828 -1.6816733 0 100 0
36.783554 18.256899 2.1692181 0 100 0
34.887241 20.250313 -0.26330954 0 100 0
30.206848 23.586565 0.089182489 0 100 0
12.701431 25.145065 2.0094714 0 100 0
39.437126 14.347126 0.028514238 0 100 0
19.967838 26.228409 -2.0094328 0 100 0
39.842613 13.524189 0.17800862 0 100 0
5.1456289 20.924078 -2.3353584 0 100 0
28.39535 24.454258 1.156106 0 100 0
20.725323 26.221317 -0.3617774 0 100 0
41.866158 6.6612682 -0.16162564 0 100 0
7.594326 22.709602 -0.4074547 0 100 0
19.382374 26.233891 1.5882783 0 100 0
22.665628 26.037397 2.4074841 0 100 0
19.463852 26.23313 -1.7274021 0 100 0
19.180307 26.235783 0.8347165 0 100 0
32.61755 22.116175 1.9131272 0 100 0
40.392181 12.319607 1.3856364 0 100 0
9.208848 23.653225 1.3935397 0 100 0
39.461319 14.305112 -1.8673897 0 100 0
35.611206 19.555338 0.48148686 0 100 0
39.720463 13.791925 -0.32978338 0 100 0
7.6658001 22.754148 0.61802429 0 100 0
39.988743 13.203888 0.98618227 0 100 0
19.360245 26.234097 0.49230269 0 100 0
34.034058 21.009514 -1.1655746 0 100 0
18.641682 26.225716 -1.4980023 0 100 0
7.3049874 22.52927 -0.0013620775 0 100 0
41.919647 6.2941332 1.0947876 0 100 0
31.008526 23.161331 0.27750084 0 100 0
10.239524 24.167595 0.8201617 0 100 0
21.109041 26.199572 -1.9016498 0 100 0
40.777489 11.25488 1.4169254 0 100 0
14.026978 25.517626 1.0525031 0 100 0
37.88102 16.838837 -1.3673806 0 100 0
11.173994 24.568893 -2.369417 0 100 0
41.74263 7.5091758 -1.3299562 0 100 0
38.172241 16.428242 -0.59521955 0 100 0
37.885658 16.832298 -1.046641 0 100 0
26.427729 25.182476 -1.8402042 0 100 0
15.930757 25.921209 -0.43572208 0 100 0
3.7496674 19.633354 -0.38660067 0 100 0
41.793709 7.1585708 -0.96559012 0 100 0
13.442375 25.353315 2.3378286 0 100 0
25.466236 25.472242 -2.24298 0 100 0
41.590977 8.3748379 0.69777828 0 100 0
41.719799 7.6658707 0.065533064 0 100 0
8.3714905 23.193977 0.20929693 0 100 0
20.971554 26.213898 2.1443686 0 100 0
41.609951 8.2969952 -0.35964021 0 100 0
21.946192 26.112354 0.18733683 0 100 0
31.855902 22.61091 2.3895082 0 100 0
22.028847 26.103741 -2.825829 0 100 0
40.047825 13.07439 -0.40020004 0 100 0
37.563278 17.286821 -1.8161725 0 100 0
30.225185 23.576982 0.92119008 0 100 0
41.462254 8.9028702 1.6489698 0 100 0
4.834722 20.636612 0.55537724 0 100 0
10.371038 24.233227 -1.2320378 0 100 0
8.5587311 23.310677 -1.3671137 0 100 0
30.385233 23.493332 0.32069427 0 100 0
35.508041 19.654377 -1.8324888 0 100 0
40.286476 12.551294 0.79426485 0 100 0
41.806183 7.0729418 1.3339186 0 100 0
11.853603 24.831272 -2.0672374 0 100 0
21.439161 26.165178 2.487215 0 100 0
37.306557 17.648766 1.9621236 0 100 0
10.676313 24.376751 -2.0437288 0 100 0
24.3979 25.723911 -0.91321492 0 100 0
12.816061 25.177284 -0.39986956 0 100 0
4.2723188 20.116604 1.9243566 0 100 0
12.020943 24.895878 1.6565717 0 100 0
35.375648 19.781464 2.2717826 0 100 0
25.32872 25.513683 -0.68520224 0 100 0
37.246311 17.720011 1.1264294 0 100 0
2.552681 18.311069 1.5549905 0 100 0
11.307221 24.620327 -0.83546925 0 100 0
11.764347 24.796812 -0.57764387 0 100 0
8.2372389 23.110304 2.1911502 0 100 0
25.900639 25.341328 -0.55039376 0 100 0
5.2106667 20.984215 -0.86867225 0 100 0
16.269068 25.982609 1.1174433 0 100 0
39.287544 14.606884 1.5226086 0 100 0
2.7035096 18.479576 -1.4035571 0 100 0
35.891251 19.286512 -0.6760602 0 100 0
31.351955 22.938253 1.4189861 0 100 0
22.376347 26.067537 -0.54350597 0 100 0
40.526764 11.978417 1.7294424 0 100 0
10.010413 24.053255 -2.3791335 0 100 0
21.916483 26.11545 0.82099658 0 100 0
36.14896 18.993155 1.4804443 0 100 0
36.678642 18.37862 -0.96414715 0 100 0
4.9170356 20.712719 -0.83541948 0 100 0
29.763025 23.818537 1.3335044 0 100 0
13.714254 25.429729 -0.20550014 0 100 0
12.465103 25.067356 -2.0773385 0 100 0
41.756439 7.4143715 -0.50810957 0 100 0
7.4440708 22.615955 -0.55074948 0 100 0
2.6935401 18.468437 0.84872431 0 100 0
4.9521589 20.745193 -0.22471051 0 100 0
22.571056 26.047251 1.3454552 0 100 0
12.169442 24.953209 -1.584643 0 100 0
31.639654 22.751377 0.53468579 0 100 0
21.160572 26.194206 -2.7370155 0 100 0
41.990047 2.1950417 -1.0118337 0 100 0
5.6893315 21.351898 0.74032199 0 100 0
38.55761 15.874454 1.0336951 0 100 0
15.59897 25.860991 0.31780341 0 100 0
37.004211 18.000893 -1.4148579 0 100 0
13.910285 25.484825 1.6056268 0 100 0
20.599955 26.222492 0.1621394 0 100 0
5.4412899 21.162634 -0.17873833 0 100 0
34.751259 20.380854 1.4378089 0 100 0
3.8024039 19.682116 -0.34042683 0 100 0
8.6530218 23.369444 -2.1651807 0 100 0
31.488668 22.849449 0.099091873 0 100 0
7.6066761 22.7173 1.5630051 0 100 0
5.4295387 21.153667 -0.79038715 0 100 0
18.473366 26.211359 -0.27879578 0 100 0
42.048058 3.5057783 -0.29040909 0 100 0
24.176424 25.768406 2.0596008 0 100 0
27.990013 24.61953 0.94490427 0 100 0
41.405304 9.1364489 0.099744074 0 100 0
31.833515 22.62545 -2.4023347 0 100 0
13.980086 25.504444 -1.0135171 0 100 0
2.5696487 18.330027 -0.20180769 0 100 0
7.6088276 22.718641 -0.22863525 0 100 0
26.437836 25.17943 -2.1961455 0 100 0
11.649945 24.752645 0.61006141 0 100 0
18.004364 26.171356 1.4807169 0 100 0
41.239445 9.8168077 -0.012902867 0 100 0
15.153061 25.78006 1.1692811 0 100 0
35.953941 19.219408 -1.5607687 0 100 0
39.39653 14.417619 2.0178993 0 100 0
41.982704 2.0292244 -0.69786209 0 100 0
8.5928173 23.331921 -1.2099333 0 100 0
21.814642 26.126059 2.7126126 0 100 0
31.790483 22.653404 -1.5233446 0 100 0
2.7251725 18.503777 -0.052780274 0 100 0
18.287485 26.195507 1.3585701 0 100 0
40.291222 12.540898 -1.2640309 0 100 0
40.880199 10.958473 0.36064056 0 100 0
28.730436 24.317629 -1.6570706 0 100 0
26.930882 25.03084 -1.994382 0 100 0
38.865536 15.339724 0.045375373 0 100 0
31.513336 22.833427 -0.4844183 0 100 0
25.425316 25.484575 1.8316274 0 100 0
32.47488 22.208847 -1.6923616 0 100 0
5.0946922 20.876982 -1.3819499 0 100 0
7.8809848 22.888264 -0.53298348 0 100 0
37.588223 17.251646 -0.93869925 0 100 0
23.837635 25.836466 -0.39806813 0 100 0
33.329453 21.568333 1.3743483 0 100 0
20.63866 26.22213 -1.4326223 0 100 0
6.8439121 22.232895 1.7793957 0 100 0
10.09088 24.093414 0.23028277 0 100 0
28.894527 24.250721 1.8877523 0 100 0
20.633457 26.222179 -0.047689185 0 100 0
4.2012587 20.050901 -1.7812856 0 100 0
41.219936 9.896841 -1.5353655 0 100 0
9.8602781 23.978329 0.55823308 0 100 0
39.407036 14.399381 1.7404622 0 100 0
4.3342423 20.173859 1.6257548 0 100 0
34.161587 20.908371 1.9174848 0 100 0
23.308311 25.94281 -1.0833133 0 100 0
15.97735 25.929667 1.4782264 0 100 0
22.17251 26.088772 1.2357521 0 100 0
9.3642931 23.730801 0.49965557 0 100 0
11.640045 24.748823 -2.0893114 0 100 0
26.291924 25.223404 -2.6021883 0 100 0
18.966782 26.237778 -1.3613205 0 100 0
31.790665 22.653288 0.023589864 0 100 0
8.8904982 23.49435 1.0693023 0 100 0
27.176916 24.951067 2.6500258 0 100 0
9.6976662 23.897175 2.0464413 0 100 0
41.738422 7.5380149 -0.90784967 0 100 0
18.578114 26.220295 1.9516405 0 100 0
41.951248 6.0772209 -0.85749167 0 100 0
16.019283 25.937275 1.2712457 0 100 0
26.241949 25.238466 1.327518 0 100 0
34.364716 20.747265 1.2562776 0 100 0
30.510765 23.427721 -0.50178701 0 100 0
30.707024 23.325142 -2.3542187 0 100 0
22.134298 26.092756 -1.9028174 0 100 0
19.095127 26.236578 1.786137 0 100 0
31.667576 22.73324 -1.1408882 0 100 0
14.718225 25.701139 -0.19042781 0 100 0
41.218567 9.9024572 1.5200771 0 100 0
40.178822 12.787262 1.7671657 0 100 0
9.9015722 23.998936 -0.52820313 0 100 0
34.839668 20.29598 0.83906764 0 100 0
33.473717 21.453915 1.4872694 0 100 0
40.90469 10.887786 -1.2538923 0 100 0
20.601767 26.222475 0.24118382 0 100 0
39.520882 14.201681 1.1908052 0 100 0
33.381149 21.52733 1.3789355 0 100 0
10.331257 24.213375 1.894874 0 100 0
38.445248 16.043339 2.1306849 0 100 0
34.013695 21.025658 -0.76707691 0 100 0
42.060123 3.7783148 0.069843784 0 100 0
12.780569 25.167307 -1.7793826 0 100 0
38.394768 16.11451 -1.1237361 0 100 0
11.929186 24.860451 -1.9855745 0 100 0
35.283024 19.870378 0.48099092 0 100 0
38.856255 15.355841 0.73288774 0 100 0
35.658836 19.509623 -2.2253218 0 100 0
15.656388 25.87141 -1.7928863 0 100 0
40.522289 11.991343 0.18959107 0 100 0
21.991236 26.107658 0.9322474 0 100 0
9.6280432 23.862429 -0.76583725 0 100 0
34.119286 20.941916 -0.26459536 0 100 0
27.922878 24.646904 -1.0976831 0 100 0
19.306927 26.234596 -1.6238701 0 100 0
35.184139 19.965302 -1.8574166 0 100 0
41.917038 6.3120241 0.92199576 0 100 0
23.082521 25.988173 0.42656589 0 100 0
40.020409 13.134483 -1.984213 0 100 0
18.040146 26.174408 2.2734923 0 100 0
40.331291 12.45306 0.82044262 0 100 0
13.510825 25.372555 -0.92902857 0 100 0
32.036106 22.493856 2.1079731 0 100 0
35.941002 19.234426 2.1908209 0 100 0
12.735136 25.154537 -0.89427006 0 100 0
42.028561 3.0652692 -0.81920135 0 100 0
18.230419 26.190638 -0.87113494 0 100 0
5.0092044 20.797939 1.4806786 0 100 0
41.649055 8.1365995 0.56899589 0 100 0
42.033363 -1.3403378 -0.50189412 0 100 0
7.121129 22.414679 -0.95736015 0 100 0
41.763756 7.3641357 0.57326126 0 100 0
21.030756 26.207729 -0.85984176 0 100 0
36.289642 18.829929 -1.5693338 0 100 0
35.883141 19.294296 1.8470751 0 100 0
29.003952 24.206104 -2.3095634 0 100 0
41.264069 9.7158136 -0.67650914 0 100 0
30.83602 23.257721 1.1285517 0 100 0
16.696802 26.059826 1.3646086 0 100 0
19.496902 26.232817 0.57019514 0 100 0
29.470776 23.971287 -1.2351902 0 100 0
17.766827 26.151096 2.1296165 0 100 0
40.108799 12.940739 -0.54485714 0 100 0
33.443279 21.478054 2.2920456 0 100 0
21.564384 26.152132 -0.27671424 0 100 0
16.334648 25.994514 0.96120292 0 100 0
5.6981888 21.358658 1.1395795 0 100 0
36.775448 18.266306 -2.3469498 0 100 0
31.726246 22.695129 0.68994761 0 100 0
31.448977 22.875235 1.6841968 0 100 0
2.9066255 18.706497 2.1886406 0 100 0
36.711586 18.340399 -1.3778377 0 100 0
41.825676 6.939147 -0.29471013 0 100 0
10.870422 24.451691 0.7713421 0 100 0
20.692263 26.221628 0.8155697 0 100 0
31.981176 22.529539 -1.286868 0 100 0
40.551563 11.90685 1.7299579 0 100 0
28.299297 24.493422 -0.64596593 0 100 0
29.334972 24.042267 -1.1530973 0 100 0
42.000862 5.1983252 -0.84554935 0 100 0
32.748138 22.029369 -2.4977894 0 100 0
37.589924 17.249249 1.371086 0 100 0
16.22471 25.97456 -1.0255781 0 100 0
28.053938 24.593466 -1.1866555 0 100 0
11.390322 24.652412 0.062178608 0 100 0
5.1400504 20.918921 0.40567344 0 100 0
31.090719 23.107943 1.9540559 0 100 0
36.147289 18.995089 0.59847748 0 100 0
3.5700784 19.44771 -0.52075702 0 100 0
38.371231 16.147692 0.71334612 0 100 0
21.134233 26.196949 -1.3128051 0 100 0
20.637997 26.222136 2.0739024 0 100 0
6.1049604 21.669041 -0.14672811 0 100 0
20.759371 26.221001 -0.36432001 0 100 0
39.778252 13.665255 -0.052676369 0 100 0
41.174042 10.085104 -0.58935916 0 100 0
39.924591 13.344506 -0.9949109 0 100 0
37.032318 17.968283 -1.1845404 0 100 0
17.978819 26.169176 1.6231016 0 100 0
13.532523 25.378651 0.15158391 0 100 0
6.1127591 21.674994 -1.5809561 0 100 0
41.614071 8.2801027 0.29948834 0 100 0
22.903862 26.012577 2.1397386 0 100 0
27.5457 24.800697 -1.2754881 0 100 0
24.818119 25.639486 -1.7673202 0 100 0
27.219152 24.933846 0.95902032 0 100 0
23.782007 25.847643 -1.7976077 0 100 0
41.99678 2.3472133 0.12386402 0 100 0
35.819889 19.355015 -2.2106109 0 100 0
8.6215601 23.349834 1.2479191 0 100 0
15.148893 25.779303 -0.83053094 0 100 0
34.709839 20.420614 -0.77285767 0 100 0
9.1563721 23.627037 1.3980352 0 100 0
42.018723 -1.671181 0.53718704 0 100 0
35.064453 20.080204 -0.8595497 0 100 0
23.347895 25.934856 -0.66926569 0 100 0
17.377317 26.117872 -1.0280668 0 100 0
41.796406 7.1400537 1.3298537 0 100 0
4.7082033 20.51963 -2.052434 0 100 0
34.78577 20.347719 -0.86915296 0 100 0
30.874432 23.23764 0.6807059 0 100 0
9.7682629 23.932407 -2.1119289 0 100 0
38.431335 16.062954 -0.88718116 0 100 0
26.389164 25.194099 -0.14983878 0 100 0
32.93404 21.881931 -0.70293003 0 100 0
5.043005 20.829191 0.85513461 0 100 0
33.481815 21.447495 1.5687034 0 100 0
14.402508 25.623171 -2.2884748 0 100 0
28.614531 24.364887 -0.45424056 0 100 0
39.233536 14.700673 1.325165 0 100 0
22.435919 26.061329 -2.7757277 0 100 0
18.234951 26.191025 1.7855883 0 100 0
