# .PCD v0.7 - Point Cloud Data file format
VERSION 0.7
FIELDS x y z rgb
SIZE 4 4 4 4
TYPE F F F F
COUNT 1 1 1 1
WIDTH 1055
HEIGHT 1
VIEWPOINT 0 0 0 1 0 0 0
POINTS 1055
DATA ascii
-2.2502151 1.4027549 0.14390525 9.1835496e-39
-0.25594819 7.6623445 -2.239624 9.1835496e-39
-1.8063112 1.5175571 1.3485006 9.1835496e-39
-2.1218965 2.0570717 -0.759642 9.1835496e-39
0.12549275 8.0682249 -2.2509403 9.1835496e-39
-2.1945131 15.154875 0.51392508 9.1835496e-39
-2.032011 4.4211411 -0.97631162 9.1835496e-39
1.8577135 9.4286633 -1.276132 9.1835496e-39
-2.2069902 0.39232418 0.45810595 9.1835496e-39
1.8557496 1.2596477 1.2790217 9.1835496e-39
-0.38647997 12.228699 -2.2206526 9.1835496e-39
-0.57339746 9.7355423 -2.1803732 9.1835496e-39
-1.9774344 1.2564211 1.0834244 9.1835496e-39
-2.218982 10.309142 -0.39702705 9.1835496e-39
-0.21548751 12.802402 -2.2434487 9.1835496e-39
-2.1414015 3.3120513 -0.7054655 9.1835496e-39
-1.3865224 13.587025 -1.7768185 9.1835496e-39
0.98272794 3.7037401 -2.0287418 9.1835496e-39
0.12314732 3.8303068 2.2510138 9.1835496e-39
-0.30583286 0.58913547 2.2334256 9.1835496e-39
-1.695434 14.378147 1.4849386 9.1835496e-39
-1.4406692 4.0838637 -1.7344629 9.1835496e-39
-2.126054 15.462472 0.7480948 9.1835496e-39
-2.2183704 10.662201 0.40088826 9.1835496e-39
1.511764 12.027402 1.6717842 9.1835496e-39
-2.0090687 14.289288 1.0213387 9.1835496e-39
0.92642826 9.5672522 2.0548439 9.1835496e-39
-1.9654061 1.5291909 1.1041609 9.1835496e-39
-1.3285396 3.5312443 -1.8217945 9.1835496e-39
-0.56714469 9.2910671 2.1821897 9.1835496e-39
-2.2028687 6.3621631 0.47654358 9.1835496e-39
-1.0862536 6.4709826 -1.9759929 9.1835496e-39
-1.5247033 12.627316 -1.6603768 9.1835496e-39
-0.062058624 1.6719294 -2.2529337 9.1835496e-39
-2.1611691 14.123221 -0.63949853 9.1835496e-39
0.94420165 3.0072594 -2.0471525 9.1835496e-39
2.2465467 14.203674 0.18271348 9.1835496e-39
-0.50595832 2.1567745 -2.1962938 9.1835496e-39
0.87209648 7.6790576 -2.0783551 9.1835496e-39
0.35769609 14.220143 -2.2252114 9.1835496e-39
-0.59670866 3.2338166 -2.1736004 9.1835496e-39
-0.82119632 10.005642 2.0997357 9.1835496e-39
-0.82382649 4.7279749 2.0987887 9.1835496e-39
1.5977317 7.3331804 1.5895823 9.1835496e-39
-0.36266521 14.563698 2.2244244 9.1835496e-39
-2.2442322 3.4756012 -0.20719922 9.1835496e-39
-1.6673865 6.7316704 1.5167522 9.1835496e-39
-2.1975088 4.7465506 -0.50052345 9.1835496e-39
0.46145263 11.020267 -2.2062421 9.1835496e-39
-1.6192291 13.962973 1.568085 9.1835496e-39
-1.9285375 10.926323 -1.1665025 9.1835496e-39
0.73216856 1.7232488 -2.1317878 9.1835496e-39
-1.2950107 10.559627 -1.8448834 9.1835496e-39
-1.8961449 12.045418 -1.2195818 9.1835496e-39
1.922514 9.8325672 1.1766878 9.1835496e-39
-0.53581405 2.1976142 2.1896203 9.1835496e-39
-1.8418113 8.0085506 -1.2995315 9.1835496e-39
0.42772478 0.64530122 2.2137814 9.1835496e-39
-2.117759 15.931734 -0.77113485 9.1835496e-39
-0.26863694 3.0194139 2.2384245 9.1835496e-39
-1.5711203 12.654293 -1.6161937 9.1835496e-39
1.6870065 12.914363 1.4944978 9.1835496e-39
-1.8611907 6.8869705 1.2710156 9.1835496e-39
1.6532031 10.639252 1.5328403 9.1835496e-39
2.2539177 1.8740116 0.0307451 9.1835496e-39
-1.7820945 9.7876968 -1.3797208 9.1835496e-39
-0.0063955821 9.0966291 -2.254683 9.1835496e-39
-2.0970981 1.9391723 0.82852262 9.1835496e-39
-1.8876545 8.542182 1.2320751 9.1835496e-39
-2.1416981 10.061228 0.7046417 9.1835496e-39
-1.1735156 8.659338 1.92439 9.1835496e-39
0.49853656 1.926538 -2.197953 9.1835496e-39
1.9131607 14.895857 1.1925032 9.1835496e-39
-2.084156 13.258308 -0.8586911 9.1835496e-39
-1.1002817 14.988028 1.9677004 9.1835496e-39
-0.88517708 13.944782 -2.0726948 9.1835496e-39
1.5691526 0.17340738 1.6181613 9.1835496e-39
2.214968 10.474926 0.42237079 9.1835496e-39
2.0745187 8.8088026 -0.88096201 9.1835496e-39
-1.4737015 13.279951 -1.7053409 9.1835496e-39
-2.2539465 12.289244 -0.029826798 9.1835496e-39
1.6174254 2.1505313 1.5698886 9.1835496e-39
-0.72157598 1.2377324 2.1356013 9.1835496e-39
-0.76996517 4.1943507 -2.11818 9.1835496e-39
1.6650569 2.9018619 -1.5193946 9.1835496e-39
2.1600065 14.853565 -0.64349973 9.1835496e-39
0.59732747 10.865467 2.1734209 9.1835496e-39
0.376228 3.9673865 2.2222762 9.1835496e-39
0.44805133 9.054615 2.2092376 9.1835496e-39
0.071595378 10.150198 -2.252634 9.1835496e-39
1.8022182 4.0078087 1.3537773 9.1835496e-39
1.7153749 14.28011 -1.46232 9.1835496e-39
0.32962596 3.952142 2.2296572 9.1835496e-39
-2.2492895 4.5335259 -0.15369785 9.1835496e-39
1.6235554 11.324266 -1.5637586 9.1835496e-39
-0.89802939 15.165071 2.0671329 9.1835496e-39
-2.0925937 12.593808 0.83919287 9.1835496e-39
2.2527914 6.4872661 -0.06658718 9.1835496e-39
-1.9202366 15.730787 1.1805387 9.1835496e-39
1.5761032 4.3275518 1.6112107 9.1835496e-39
-2.1034305 0.46651271 -0.81093359 9.1835496e-39
2.1805415 13.926994 0.57281852 9.1835496e-39
-1.7143518 1.1026615 1.4634805 9.1835496e-39
-1.3229899 6.2074304 -1.8258691 9.1835496e-39
-1.9642518 10.192413 1.1061127 9.1835496e-39
2.2449534 9.81322 0.19956759 9.1835496e-39
1.4902408 12.502647 1.6907595 9.1835496e-39
1.7892587 10.851707 -1.3704845 9.1835496e-39
-1.0776966 11.630468 1.980353 9.1835496e-39
-1.4377707 0.78079605 1.7370181 9.1835496e-39
-1.3904179 14.749699 -1.7737966 9.1835496e-39
-0.89694166 2.4616871 -2.0676038 9.1835496e-39
-1.9087667 14.801445 -1.1999331 9.1835496e-39
-1.1309965 12.252611 -1.9495357 9.1835496e-39
-1.7249005 14.397026 -1.4515156 9.1835496e-39
-0.93778807 2.3129034 2.0499279 9.1835496e-39
-0.47001049 7.2151022 -2.2043293 9.1835496e-39
2.1877818 1.2248354 0.54403985 9.1835496e-39
-2.2375541 11.851131 0.27784348 9.1835496e-39
-0.55772227 8.9747639 2.1847234 9.1835496e-39
0.61202723 10.06563 2.1691504 9.1835496e-39
-1.30831 1.4621981 1.8358454 9.1835496e-39
-2.0089664 15.583555 -1.0215392 9.1835496e-39
1.4103255 9.0231552 1.7583548 9.1835496e-39
-2.1826916 1.5733064 -0.56541729 9.1835496e-39
-1.2282279 5.3918056 -1.8902692 9.1835496e-39
0.69830012 15.932321 -2.1439812 9.1835496e-39
-1.9808465 0.36307725 1.0767279 9.1835496e-39
-2.2533324 5.5067248 -0.049368508 9.1835496e-39
-2.1716805 14.311189 0.60331821 9.1835496e-39
-1.9251556 11.258197 1.1722212 9.1835496e-39
1.9148155 10.482523 -1.189705 9.1835496e-39
2.2509613 14.265877 0.12481529 9.1835496e-39
1.9840474 2.7465107 1.0704458 9.1835496e-39
0.40985405 7.8024845 -2.2169504 9.1835496e-39
-2.2466917 14.184822 -0.18117969 9.1835496e-39
-0.93397897 2.501936 2.0515761 9.1835496e-39
-0.77061379 2.3313289 2.1179466 9.1835496e-39
-1.6171451 4.429018 1.5701687 9.1835496e-39
1.5765305 6.4466248 -1.6107836 9.1835496e-39
1.3419381 13.063981 1.8114016 9.1835496e-39
1.3217442 9.3778133 -1.8267155 9.1835496e-39
-1.2147789 9.9172173 -1.8994091 9.1835496e-39
1.2065341 5.3670206 1.9048629 9.1835496e-39
2.2202847 10.638577 0.38880193 9.1835496e-39
1.6544358 12.897417 -1.531442 9.1835496e-39
2.2154942 4.9880419 0.41904825 9.1835496e-39
0.79795653 3.5914807 2.1081026 9.1835496e-39
-1.7840663 8.9004087 1.3771784 9.1835496e-39
1.5469086 0.8359592 1.6404054 9.1835496e-39
-0.97735417 3.7642021 -2.0314801 9.1835496e-39
0.04975567 5.9296994 2.2533205 9.1835496e-39
0.99937248 12.158245 2.020261 9.1835496e-39
2.1318178 2.0874095 0.73208463 9.1835496e-39
2.2503617 5.6540656 0.14235431 9.1835496e-39
-1.8573864 14.955818 -1.2766135 9.1835496e-39
-2.2186074 4.8365993 0.39939246 9.1835496e-39
-2.0916209 15.154589 0.84144139 9.1835496e-39
1.9528046 8.5974245 -1.1254691 9.1835496e-39
-1.9226485 7.2012382 1.1764601 9.1835496e-39
-1.626649 4.3060799 1.560665 9.1835496e-39
0.29962274 5.9029293 2.2344093 9.1835496e-39
1.5116801 10.863424 -1.6718582 9.1835496e-39
-0.91179073 12.696136 2.061178 9.1835496e-39
-1.3882432 2.2932158 -1.7754837 9.1835496e-39
-1.5436232 2.2988932 -1.6436908 9.1835496e-39
0.43783286 6.54462 -2.2115216 9.1835496e-39
-2.0263205 5.0007558 0.98747998 9.1835496e-39
1.3450316 14.13377 -1.8090018 9.1835496e-39
-2.154592 7.3094759 0.66213679 9.1835496e-39
1.9714515 4.6130271 1.0939388 9.1835496e-39
1.7993877 3.7639866 -1.3574263 9.1835496e-39
-0.27921429 2.1772404 -2.2374246 9.1835496e-39
-0.082079962 9.3737507 2.2523043 9.1835496e-39
-1.565269 15.527954 -1.622045 9.1835496e-39
1.5032079 11.621065 -1.6793275 9.1835496e-39
1.4715823 14.080549 -1.7072092 9.1835496e-39
-1.2883759 2.6066759 -1.8493927 9.1835496e-39
-1.9289093 4.2253947 1.165874 9.1835496e-39
-2.1471367 1.7542486 -0.6877988 9.1835496e-39
0.85260069 4.2005138 2.0867918 9.1835496e-39
2.2507975 1.7953264 0.13003814 9.1835496e-39
-0.0070719835 6.6190224 2.2546618 9.1835496e-39
1.7548457 2.8700449 1.4148492 9.1835496e-39
-1.780248 1.057225 -1.3821011 9.1835496e-39
0.25149527 8.8314791 -2.2400448 9.1835496e-39
0.72974467 0.22852436 2.1326604 9.1835496e-39
-1.4147297 3.8153818 1.7549386 9.1835496e-39
-0.75233853 11.291214 -2.124526 9.1835496e-39
1.5948218 8.049386 1.5924922 9.1835496e-39
2.1304481 9.574502 0.73588985 9.1835496e-39
1.5179315 5.879765 -1.666347 9.1835496e-39
0.47075379 6.0256934 -2.2041631 9.1835496e-39
-1.0404054 5.7398648 -1.9993536 9.1835496e-39
1.4026216 3.451817 -1.7643306 9.1835496e-39
2.213449 13.465292 -0.42921075 9.1835496e-39
-1.353623 2.8507099 -1.8023379 9.1835496e-39
-1.269549 13.300858 -1.8621874 9.1835496e-39
-2.1538317 10.686149 0.66475391 9.1835496e-39
1.5627482 10.234035 -1.6245658 9.1835496e-39
-1.6426808 3.603672 1.5446333 9.1835496e-39
2.1570303 3.0219436 0.65374416 9.1835496e-39
0.24017081 5.0822062 -2.2411153 9.1835496e-39
-0.50576663 13.739882 2.1963367 9.1835496e-39
1.2831498 11.185839 -1.8529441 9.1835496e-39
1.9466558 4.6789637 1.1358662 9.1835496e-39
1.480001 8.3693085 -1.6997871 9.1835496e-39
2.1253917 0.46715522 0.7499342 9.1835496e-39
-0.74654752 12.507671 2.126611 9.1835496e-39
2.1594963 7.325479 0.64525586 9.1835496e-39
0.83280927 10.940799 -2.0953562 9.1835496e-39
0.6258595 13.928875 -2.1651316 9.1835496e-39
2.2421198 3.156774 0.22954729 9.1835496e-39
-0.56630224 6.8259592 -2.1824346 9.1835496e-39
2.245399 10.470743 -0.19485393 9.1835496e-39
-2.1122859 16.208935 0.78633702 9.1835496e-39
1.505958 1.9834567 -1.6769029 9.1835496e-39
-2.0391679 4.6069465 0.96226597 9.1835496e-39
-2.2509546 8.4545212 0.12502991 9.1835496e-39
0.17885378 2.6755228 -2.2469115 9.1835496e-39
-1.332171 8.9101458 1.8189776 9.1835496e-39
-1.0041561 3.9416111 2.0178237 9.1835496e-39
-2.1888616 6.6118917 -0.53920782 9.1835496e-39
0.35913882 6.0980892 -2.224983 9.1835496e-39
-0.57707644 3.0741873 -2.1793044 9.1835496e-39
0.78005928 4.3854346 2.1145461 9.1835496e-39
0.81308049 9.9946289 2.1026578 9.1835496e-39
-1.353673 1.6806836 1.802299 9.1835496e-39
-0.99201584 15.427868 2.0240095 9.1835496e-39
-1.9875798 1.0691357 -1.0635132 9.1835496e-39
2.169944 10.30978 -0.60929418 9.1835496e-39
1.4339445 9.4939299 -1.740034 9.1835496e-39
-0.89365655 11.307332 2.0690253 9.1835496e-39
1.695062 7.9622087 1.4853605 9.1835496e-39
-2.2390637 11.695072 -0.26187307 9.1835496e-39
-1.6664056 12.38003 1.5178648 9.1835496e-39
0.79260647 6.3023643 -2.110029 9.1835496e-39
-1.4686301 10.184984 -1.7098119 9.1835496e-39
2.0386264 11.11105 -0.9633283 9.1835496e-39
2.2411189 15.599976 -0.24013489 9.1835496e-39
1.5054868 9.6149025 -1.6773183 9.1835496e-39
-1.6005226 4.624795 1.5867912 9.1835496e-39
-0.72482288 6.9732537 2.1344323 9.1835496e-39
-0.97511208 9.2796669 -2.0326223 9.1835496e-39
0.74383497 7.6074781 2.1275876 9.1835496e-39
1.3526645 6.2083545 -1.8030815 9.1835496e-39
1.9141084 6.1232071 1.1909009 9.1835496e-39
0.3685244 5.8372254 -2.2234962 9.1835496e-39
-1.0996351 0.60208184 1.9680828 9.1835496e-39
-0.13412946 14.130766 2.2506688 9.1835496e-39
-0.78231895 15.401979 2.1137326 9.1835496e-39
1.2714773 5.7159405 -1.8608767 9.1835496e-39
0.99902487 4.8359227 2.0204382 9.1835496e-39
1.2921246 6.1646447 -1.846845 9.1835496e-39
-1.5511101 4.6602058 -1.6362039 9.1835496e-39
0.34250224 8.9326773 2.227618 9.1835496e-39
1.2152396 12.413445 -1.899096 9.1835496e-39
-1.3230455 15.121781 -1.8258312 9.1835496e-39
2.2363906 11.772763 0.28711379 9.1835496e-39
-0.41657549 7.7684455 2.2158861 9.1835496e-39
2.2501292 15.062172 -0.14481501 9.1835496e-39
1.7359324 6.3967896 1.4390023 9.1835496e-39
-2.2527909 8.6431952 -0.066599786 9.1835496e-39
-2.2515478 9.9924459 0.10615329 9.1835496e-39
1.0482103 15.86209 1.9953769 9.1835496e-39
1.9472831 2.278708 1.1348054 9.1835496e-39
-1.8814497 6.310781 -1.2412055 9.1835496e-39
-2.2306528 9.7439365 -0.32333934 9.1835496e-39
-2.2513633 14.809304 0.11202413 9.1835496e-39
-2.1779714 7.3099089 0.58166438 9.1835496e-39
-1.658911 8.9241228 1.5263659 9.1835496e-39
1.4637842 10.050909 1.7140841 9.1835496e-39
1.7923422 9.3487997 1.3665092 9.1835496e-39
-2.0593719 11.471225 -0.91596425 9.1835496e-39
0.41883874 7.2323313 2.2155275 9.1835496e-39
-0.018413994 3.9959486 2.2543054 9.1835496e-39
-2.2425859 2.4609401 -0.22461328 9.1835496e-39
1.8960822 1.099802 1.2196742 9.1835496e-39
0.24555826 8.7020807 -2.2406063 9.1835496e-39
1.5194936 15.603351 -1.6649699 9.1835496e-39
-1.3590934 7.6505194 -1.7980945 9.1835496e-39
-1.9354128 13.329489 1.1548772 9.1835496e-39
2.2274649 3.8018115 0.3434673 9.1835496e-39
-1.5386389 14.451736 -1.6480907 9.1835496e-39
1.8418324 6.6526175 1.2995003 9.1835496e-39
2.1736183 6.0524931 0.59664768 9.1835496e-39
-0.81799793 15.645947 -2.1008875 9.1835496e-39
1.894719 0.14782049 -1.2216802 9.1835496e-39
-0.84232306 1.4255621 2.0912392 9.1835496e-39
2.1329896 13.483673 -0.72883028 9.1835496e-39
1.8880391 8.4761076 1.2315093 9.1835496e-39
-0.24578428 0.90329427 -2.2405846 9.1835496e-39
2.21661 3.2604647 -0.41200411 9.1835496e-39
-1.0312985 5.4434795 2.003994 9.1835496e-39
-0.34888849 1.8225474 2.2266064 9.1835496e-39
2.2543616 9.2232475 -0.016621653 9.1835496e-39
-1.9098425 4.9549007 -1.1981138 9.1835496e-39
-1.5676184 1.2725639 -1.6196955 9.1835496e-39
-1.4810917 0.61339736 -1.6988255 9.1835496e-39
1.6504039 6.588728 1.5360155 9.1835496e-39
-2.2231503 12.65045 -0.37071073 9.1835496e-39
-0.080988616 3.4752727 2.2523386 9.1835496e-39
-1.9987013 13.661872 1.0416857 9.1835496e-39
1.2246252 9.2355871 1.8927176 9.1835496e-39
2.2510421 14.674149 0.12224654 9.1835496e-39
0.72449344 15.805109 2.134551 9.1835496e-39
2.2416193 5.6185193 -0.23483759 9.1835496e-39
1.6255479 4.2416472 -1.561766 9.1835496e-39
2.2209787 3.082016 -0.38441947 9.1835496e-39
2.2146411 4.9237957 0.42387691 9.1835496e-39
2.0060763 3.9745021 -1.0272111 9.1835496e-39
-0.62030631 16.204714 2.1667449 9.1835496e-39
-2.0744984 10.793562 -0.88100898 9.1835496e-39
0.16541852 15.815301 -2.2481816 9.1835496e-39
-2.2373824 2.7251179 -0.27965981 9.1835496e-39
2.0435197 10.880782 -0.95259672 9.1835496e-39
2.1680074 5.4191723 0.61596036 9.1835496e-39
-2.1573114 8.1849222 -0.65277624 9.1835496e-39
-1.2656705 10.910149 1.8648231 9.1835496e-39
0.2232234 3.8912568 -2.2427175 9.1835496e-39
-0.31611025 6.0863862 -2.2317979 9.1835496e-39
-1.2786399 11.805696 1.8560092 9.1835496e-39
-1.3761986 7.868803 1.7848263 9.1835496e-39
-0.57082069 11.877646 -2.1811218 9.1835496e-39
-0.24443014 15.517532 -2.2407126 9.1835496e-39
-0.50725925 6.9602246 -2.196003 9.1835496e-39
-1.5417618 12.547851 -1.6453377 9.1835496e-39
1.9619882 1.3971633 1.1099403 9.1835496e-39
-0.87373477 7.8168831 -2.077646 9.1835496e-39
1.9799972 1.2687558 1.0783948 9.1835496e-39
-1.5833611 1.5064414 1.6039529 9.1835496e-39
1.8842368 11.31596 1.2371041 9.1835496e-39
-2.2544167 10.221283 -0.014868028 9.1835496e-39
2.2402651 5.2495422 0.24916285 9.1835496e-39
0.73282802 0.73378909 -2.1315503 9.1835496e-39
1.4008229 11.392275 -1.7657259 9.1835496e-39
-1.6557834 12.034627 1.5299133 9.1835496e-39
-1.4570521 10.311625 1.7200193 9.1835496e-39
-1.2020085 15.502025 -1.9075394 9.1835496e-39
-0.29929912 15.053317 2.2344604 9.1835496e-39
0.54411477 9.9198999 2.1877649 9.1835496e-39
-1.8271883 10.169598 1.3210486 9.1835496e-39
1.3726131 6.3525586 1.7876074 9.1835496e-39
2.2530422 7.3497519 -0.058601659 9.1835496e-39
-0.16774911 13.556935 -2.2479613 9.1835496e-39
1.6881087 0.67310929 -1.4932476 9.1835496e-39
-1.366116 11.301107 1.7926474 9.1835496e-39
0.52564943 7.5931215 2.1918924 9.1835496e-39
2.2412713 9.9077339 -0.23851988 9.1835496e-39
2.2190914 6.9337816 0.39633703 9.1835496e-39
1.783197 2.1361709 1.3782992 9.1835496e-39
2.1070409 12.376027 -0.80090523 9.1835496e-39
1.6576164 12.319235 -1.5278344 9.1835496e-39
-0.54991007 2.7508459 2.1864696 9.1835496e-39
1.4303701 12.405992 -1.7428067 9.1835496e-39
-1.0590575 12.338532 1.98985 9.1835496e-39
-1.877694 6.6081381 1.2467315 9.1835496e-39
-0.18369097 1.5787807 -2.2464542 9.1835496e-39
-1.5845668 12.692665 1.6027473 9.1835496e-39
2.1744258 8.8674688 0.59386849 9.1835496e-39
0.62676179 3.8179793 -2.1648693 9.1835496e-39
2.2439713 4.4763985 0.20995766 9.1835496e-39
0.50767738 8.9359207 -2.1959097 9.1835496e-39
-1.5618942 8.8557529 -1.62542 9.1835496e-39
-2.1926336 8.7221298 -0.52233434 9.1835496e-39
-1.1196852 3.1805036 1.9562249 9.1835496e-39
1.393769 7.9071646 -1.7711974 9.1835496e-39
-2.2547953 11.894464 0.0028224112 9.1835496e-39
-1.5830169 3.7695186 -1.604297 9.1835496e-39
1.7619438 8.6249428 -1.4056987 9.1835496e-39
-1.9177566 2.0248096 -1.1847322 9.1835496e-39
1.8710721 7.8853464 -1.2564754 9.1835496e-39
-0.28768495 3.6423082 2.2363 9.1835496e-39
0.8771795 4.910995 -2.0761554 9.1835496e-39
-2.2351477 13.983078 -0.29495946 9.1835496e-39
1.3519492 7.798605 1.8036362 9.1835496e-39
-2.0463066 4.2337451 -0.94615638 9.1835496e-39
1.5332577 5.9681592 1.6528351 9.1835496e-39
2.0569711 1.1002742 0.92151248 9.1835496e-39
-1.2647408 5.7855678 1.865455 9.1835496e-39
2.251122 3.1420345 -0.11970632 9.1835496e-39
1.5574411 11.000053 1.6298729 9.1835496e-39
-0.91360885 9.9275093 -2.0603912 9.1835496e-39
-2.1725435 1.099812 -0.60034662 9.1835496e-39
2.2524135 3.6080949 0.078608155 9.1835496e-39
1.8884616 8.4028606 -1.2308878 9.1835496e-39
-1.9036884 15.272247 -1.2084819 9.1835496e-39
-2.2090719 5.1980939 0.44879359 9.1835496e-39
-0.045844167 13.70195 2.2534432 9.1835496e-39
-1.2895607 11.58997 1.8485875 9.1835496e-39
0.33581573 3.494298 -2.2286768 9.1835496e-39
-1.0352706 15.067299 2.0019701 9.1835496e-39
2.2278366 13.715371 0.34112179 9.1835496e-39
-1.3157363 14.90745 -1.8307986 9.1835496e-39
1.264133 8.503726 -1.8658681 9.1835496e-39
1.5123376 0.098591805 1.6712787 9.1835496e-39
1.253551 14.738077 -1.8730595 9.1835496e-39
1.2208434 1.0419651 -1.8952876 9.1835496e-39
-1.571538 6.5028896 -1.6157762 9.1835496e-39
0.88667482 3.5173738 -2.0720468 9.1835496e-39
-0.69433784 3.3950198 2.145237 9.1835496e-39
-1.2248647 9.2528467 -1.8925546 9.1835496e-39
0.77235681 14.361237 -2.1173191 9.1835496e-39
2.2455204 13.46505 0.19357011 9.1835496e-39
1.8799876 13.113968 1.2433567 9.1835496e-39
-2.0337477 3.0204349 -0.97290355 9.1835496e-39
-1.8771338 9.2056322 -1.2475557 9.1835496e-39
-0.36719468 9.5734549 -2.223707 9.1835496e-39
1.8323215 8.3310413 1.313495 9.1835496e-39
0.4828814 4.7617435 -2.2014523 9.1835496e-39
1.7259034 5.9145799 1.4503779 9.1835496e-39
1.868741 5.205544 1.2599057 9.1835496e-39
1.2988158 1.7275938 -1.8422977 9.1835496e-39
2.1227641 6.7607875 0.75723261 9.1835496e-39
-0.17780994 9.0071554 2.24701 9.1835496e-39
-2.2307692 16.120419 0.32260513 9.1835496e-39
-1.7759244 2.3382082 -1.387675 9.1835496e-39
0.1880658 3.3279047 2.2460408 9.1835496e-39
1.0748039 4.4338312 -1.9818268 9.1835496e-39
-1.2794079 10.785219 -1.8554872 9.1835496e-39
2.1338305 14.537774 0.72649491 9.1835496e-39
0.77899158 9.0038633 -2.1149304 9.1835496e-39
0.31303486 4.8437576 2.232285 9.1835496e-39
-1.2216797 16.134026 1.8947192 9.1835496e-39
1.0262588 12.129218 -2.0065618 9.1835496e-39
-2.2481904 0.96559113 -0.1653239 9.1835496e-39
-2.2101889 8.3742266 -0.44379634 9.1835496e-39
-0.20716178 16.193525 -2.2442358 9.1835496e-39
2.2241211 3.384954 -0.36458039 9.1835496e-39
1.4875989 6.1890445 -1.6930887 9.1835496e-39
0.45987639 7.3147793 2.2065945 9.1835496e-39
-1.2064352 1.3818169 1.9049213 9.1835496e-39
1.6122617 1.8093628 -1.5750525 9.1835496e-39
-1.4744551 13.212701 -1.7046765 9.1835496e-39
-1.4234385 8.9657221 -1.7481833 9.1835496e-39
2.2473857 4.1552153 -0.17383802 9.1835496e-39
0.062208883 12.932194 2.252929 9.1835496e-39
2.2207029 1.3036491 0.38616204 9.1835496e-39
2.2317293 9.6349096 0.31654364 9.1835496e-39
-1.4352169 1.6804874 1.7390471 9.1835496e-39
0.75749195 12.284666 -2.1226707 9.1835496e-39
-2.2305362 12.378644 0.32407504 9.1835496e-39
-2.1791902 7.8057075 0.57746977 9.1835496e-39
-1.8577304 8.759059 -1.2761072 9.1835496e-39
2.1281252 15.839876 -0.742342 9.1835496e-39
0.18886691 0.73199421 -2.245965 9.1835496e-39
-2.2211013 5.3851223 -0.38364643 9.1835496e-39
1.3141613 0.5014863 -1.8318689 9.1835496e-39
2.126034 4.9869947 -0.74815011 9.1835496e-39
-1.2839907 5.6373515 -1.8523728 9.1835496e-39
-1.5326608 11.766749 -1.6533613 9.1835496e-39
2.0860085 11.824146 -0.85441017 9.1835496e-39
-1.710276 2.527936 1.4681036 9.1835496e-39
0.79929483 2.54334 2.1076207 9.1835496e-39
-0.5152607 1.9842244 -2.1942143 9.1835496e-39
0.34137768 14.862871 -2.2277961 9.1835496e-39
1.7605036 12.634846 -1.4075552 9.1835496e-39
-1.8096253 1.516627 -1.344228 9.1835496e-39
-1.455971 13.295881 -1.7209723 9.1835496e-39
2.2299747 0.17421122 -0.32762235 9.1835496e-39
-2.1959276 11.307528 0.50759697 9.1835496e-39
-1.306249 1.8486609 1.8372461 9.1835496e-39
2.0658402 4.3239942 -0.90101689 9.1835496e-39
1.6955968 2.0355387 1.484754 9.1835496e-39
-2.247371 16.024471 -0.17399339 9.1835496e-39
0.50715262 7.7107697 -2.196027 9.1835496e-39
1.9524446 5.8321199 -1.1260775 9.1835496e-39
1.3515036 10.684832 1.8039818 9.1835496e-39
-2.2529109 6.3096876 -0.062781289 9.1835496e-39
2.2503498 13.681587 0.14248133 9.1835496e-39
2.2244732 14.998838 0.36235654 9.1835496e-39
-1.3566315 12.416506 1.8000041 9.1835496e-39
-2.2310929 4.5733476 0.32055894 9.1835496e-39
1.2598875 10.20711 -1.8687533 9.1835496e-39
2.0473421 8.7137308 0.94376355 9.1835496e-39
1.9734949 11.548173 1.0904837 9.1835496e-39
-1.3002231 15.969416 -1.8413413 9.1835496e-39
-0.93167901 8.3624477 2.0525715 9.1835496e-39
1.9041231 16.081999 -1.2077849 9.1835496e-39
-1.5718111 11.819451 1.615503 9.1835496e-39
-1.6394964 0.2978372 1.5478176 9.1835496e-39
-2.221806 1.32682 -0.37919617 9.1835496e-39
0.23999608 15.507427 -2.2411318 9.1835496e-39
-2.2510459 7.7331858 0.12212925 9.1835496e-39
1.7407305 6.7862263 -1.4330466 9.1835496e-39
-0.9889307 14.140086 -2.0255814 9.1835496e-39
-1.5230262 8.0005455 -1.6618552 9.1835496e-39
-1.2898484 1.4217019 -1.848392 9.1835496e-39
-1.2522196 1.8621083 1.8739643 9.1835496e-39
-1.1239642 12.383917 1.9536947 9.1835496e-39
-1.6917574 3.4286206 -1.4891089 9.1835496e-39
-1.5128891 11.265846 -1.6707922 9.1835496e-39
-0.16765592 11.969737 -2.2479699 9.1835496e-39
1.4987309 4.2636471 -1.6832746 9.1835496e-39
1.6245943 14.695463 1.5627197 9.1835496e-39
2.1837039 5.8670526 0.56193346 9.1835496e-39
-1.8522168 5.8258185 1.2842201 9.1835496e-39
1.5838432 5.2830086 1.6034709 9.1835496e-39
-1.2826682 1.3028656 1.8532715 9.1835496e-39
-1.9961008 14.514592 -1.0467899 9.1835496e-39
1.107958 9.2947607 -1.9631606 9.1835496e-39
1.4582007 3.7404766 1.7190065 9.1835496e-39
1.2291868 4.2943034 -1.8896174 9.1835496e-39
-2.0361881 7.8888836 0.96811402 9.1835496e-39
-0.081934214 0.54968995 -2.2523088 9.1835496e-39
1.3224093 10.051222 -1.8262637 9.1835496e-39
1.0077562 2.0560062 -2.0159891 9.1835496e-39
-1.0437602 8.690073 1.9976444 9.1835496e-39
-0.89393544 0.59459692 -2.0689046 9.1835496e-39
0.57319438 12.271241 -2.1804321 9.1835496e-39
2.1590889 5.0181255 0.64665836 9.1835496e-39
0.76038975 10.666763 -2.1216276 9.1835496e-39
-1.7580323 3.072367 -1.4107413 9.1835496e-39
0.68417221 9.7011843 2.1481903 9.1835496e-39
1.880536 9.1616793 1.2425499 9.1835496e-39
1.1445265 8.665863 1.9415342 9.1835496e-39
1.8181854 3.0768559 1.3331926 9.1835496e-39
-2.2082448 14.979893 -0.45249322 9.1835496e-39
1.7326926 3.106801 1.442677 9.1835496e-39
0.89794958 0.60812229 2.0671675 9.1835496e-39
2.0346031 8.5935097 0.97122431 9.1835496e-39
-1.8529583 4.5774946 1.283129 9.1835496e-39
0.63962704 8.449935 -2.1611319 9.1835496e-39
2.2516074 15.520768 -0.1042584 9.1835496e-39
1.4892814 3.7290683 -1.6916053 9.1835496e-39
-2.2296131 4.134017 -0.32990563 9.1835496e-39
2.2413421 13.28847 0.23777334 9.1835496e-39
-0.045047857 7.6804218 -2.2534685 9.1835496e-39
1.1671628 9.1316919 -1.928147 9.1835496e-39
-1.5889086 13.088284 -1.5984055 9.1835496e-39
-0.76875782 15.480999 -2.1186147 9.1835496e-39
1.7069663 5.7674341 -1.4718577 9.1835496e-39
-1.0794582 11.002834 1.9794552 9.1835496e-39
1.4054132 14.696472 -1.7621653 9.1835496e-39
1.9141246 6.2814379 -1.1908734 9.1835496e-39
0.20641977 5.3655639 2.2443058 9.1835496e-39
-1.1168795 1.831368 -1.9578846 9.1835496e-39
2.2278309 9.4623928 0.34115624 9.1835496e-39
-1.3168635 5.3241653 -1.8300326 9.1835496e-39
0.48295391 11.464316 2.201436 9.1835496e-39
-2.238977 0.8680616 -0.26279169 9.1835496e-39
-1.8356123 1.8713503 -1.308653 9.1835496e-39
-0.13905589 3.7472711 2.2505138 9.1835496e-39
1.7238301 11.787216 1.4527293 9.1835496e-39
-1.480961 8.2489681 1.6989406 9.1835496e-39
1.8910768 10.069777 1.2270396 9.1835496e-39
-2.2353919 0.80940402 0.29341835 9.1835496e-39
-1.7455637 0.85208327 -1.4268156 9.1835496e-39
2.2358856 7.519382 0.29030001 9.1835496e-39
1.1901524 14.866285 -1.9145509 9.1835496e-39
0.092394732 6.2793055 2.2519803 9.1835496e-39
-0.64134908 7.0457134 2.1606317 9.1835496e-39
-1.9736955 3.2553329 1.0901446 9.1835496e-39
-1.7900566 2.4931724 1.3694559 9.1835496e-39
0.3244774 13.524309 2.2304728 9.1835496e-39
0.4348824 4.27671 -2.2121811 9.1835496e-39
-1.9863256 5.7271996 -1.0659744 9.1835496e-39
-1.5462281 13.022263 -1.6410859 9.1835496e-39
-0.95138216 1.7179847 -2.0440452 9.1835496e-39
-1.988368 12.257273 -1.0619658 9.1835496e-39
2.0427501 15.913201 -0.95437473 9.1835496e-39
-2.2071919 0.94615054 0.45720366 9.1835496e-39
2.1722136 2.9999359 0.60148323 9.1835496e-39
2.2512324 4.2655721 0.11619847 9.1835496e-39
0.60462719 8.7690048 2.1712999 9.1835496e-39
-2.0678 9.3806953 -0.89648777 9.1835496e-39
-0.84250927 6.6193943 2.0911586 9.1835496e-39
1.7196319 9.7582455 1.4574915 9.1835496e-39
2.2537177 4.7116475 -0.03711497 9.1835496e-39
-1.7616941 10.916812 -1.4060206 9.1835496e-39
1.1192735 9.9550495 1.9564686 9.1835496e-39
0.83823395 1.2820413 2.0930088 9.1835496e-39
-0.1010174 5.2867079 2.2517092 9.1835496e-39
-1.4225374 13.382844 -1.7488823 9.1835496e-39
-2.1142957 12.80282 0.78075415 9.1835496e-39
2.2082391 2.558903 0.45251834 9.1835496e-39
-2.251514 13.753767 0.10723736 9.1835496e-39
-0.77839947 8.8097057 2.1151435 9.1835496e-39
2.0595028 8.01861 0.91566175 9.1835496e-39
0.66202092 14.991879 -2.1546257 9.1835496e-39
-1.1842446 3.6626203 1.9180448 9.1835496e-39
2.0223646 2.1177487 -0.99524403 9.1835496e-39
1.4299736 5.8502073 -1.7431142 9.1835496e-39
-2.096071 14.875171 -0.83115703 9.1835496e-39
-1.987689 5.8227215 1.0632986 9.1835496e-39
-1.0751337 6.2462778 -1.9816588 9.1835496e-39
1.8753564 11.398193 1.2501712 9.1835496e-39
-0.18408449 7.4279804 2.246417 9.1835496e-39
0.70774508 10.257375 -2.1405809 9.1835496e-39
-1.8393691 10.626747 1.3031249 9.1835496e-39
-1.5539026 7.9096718 -1.6334115 9.1835496e-39
-2.0002067 15.384203 1.0387313 9.1835496e-39
-0.095645472 8.9668131 2.2518783 9.1835496e-39
1.2020063 2.1647327 1.9075407 9.1835496e-39
1.2624482 3.960314 1.8670131 9.1835496e-39
-2.0929613 1.556994 0.83834386 9.1835496e-39
-1.913273 0.77213097 -1.1923136 9.1835496e-39
1.7895983 10.355656 -1.3700466 9.1835496e-39
-2.2547467 13.781791 -0.0043635704 9.1835496e-39
-1.694446 13.730998 1.4860592 9.1835496e-39
1.1947407 12.215913 1.9118375 9.1835496e-39
2.2519019 3.8201981 -0.094895348 9.1835496e-39
2.0269852 12.137589 0.98617566 9.1835496e-39
-1.3017143 12.114533 -1.840328 9.1835496e-39
-1.6148252 2.4741485 1.5724888 9.1835496e-39
-0.88487935 14.058905 -2.0728235 9.1835496e-39
-1.5924809 5.5175529 -1.5948331 9.1835496e-39
-0.99209964 1.4704907 -2.0239666 9.1835496e-39
1.3862921 15.799889 1.7769971 9.1835496e-39
1.7075433 10.539317 1.4712033 9.1835496e-39
-1.4443521 13.217471 1.7312156 9.1835496e-39
0.19079377 7.5403919 2.2457829 9.1835496e-39
-1.2801481 7.4107213 -1.8549842 9.1835496e-39
-2.2168891 2.5492976 0.41024125 9.1835496e-39
-0.15380707 12.029872 2.249279 9.1835496e-39
-2.0733361 6.6941333 0.88369483 9.1835496e-39
-0.97081816 7.6180058 -2.0348103 9.1835496e-39
2.0281255 15.746504 0.98393786 9.1835496e-39
1.8054187 7.6205273 -1.3496512 9.1835496e-39
2.103848 8.349412 -0.80977434 9.1835496e-39
-1.7372968 4.5975699 -1.4374542 9.1835496e-39
-2.2063777 13.032976 -0.46084556 9.1835496e-39
1.4129007 3.5847518 1.7563573 9.1835496e-39
-0.89146715 10.123682 -2.069973 9.1835496e-39
-1.0655464 7.9014807 1.9865437 9.1835496e-39
0.4175328 1.809665 2.2157342 9.1835496e-39
0.87745023 3.6069593 -2.0760384 9.1835496e-39
-1.0423698 7.8307519 -1.9983528 9.1835496e-39
-0.63402563 15.088741 -2.1627591 9.1835496e-39
-1.9604131 9.1201839 1.1126039 9.1835496e-39
0.87828547 7.6078258 2.0756772 9.1835496e-39
0.94261241 6.32129 2.0478401 9.1835496e-39
-1.8101406 12.992653 1.3435634 9.1835496e-39
1.8331913 8.9943171 -1.3122157 9.1835496e-39
-1.2333909 2.0694504 1.8867605 9.1835496e-39
1.7709495 5.3839712 1.3940884 9.1835496e-39
1.4051056 16.190479 -1.7624037 9.1835496e-39
0.16519342 8.5280485 2.2482028 9.1835496e-39
1.9420599 5.024601 -1.1436377 9.1835496e-39
2.2156351 8.0244417 0.41815943 9.1835496e-39
-0.73341143 15.564438 -2.1313403 9.1835496e-39
-0.44184279 13.253911 2.2106254 9.1835496e-39
2.2193556 7.7800236 0.39466757 9.1835496e-39
-2.0124042 12.67345 -1.0147924 9.1835496e-39
-1.9354259 1.3661979 1.1548548 9.1835496e-39
0.46441704 1.7910419 -2.2055795 9.1835496e-39
1.4951117 1.6583366 1.6864651 9.1835496e-39
1.4303768 3.3929272 1.7428013 9.1835496e-39
1.6060519 15.786339 -1.5812621 9.1835496e-39
0.011579319 11.552093 2.2545202 9.1835496e-39
0.80170321 7.3179836 2.1067538 9.1835496e-39
-0.9479478 11.321671 2.0455313 9.1835496e-39
1.0751683 10.412999 1.9816412 9.1835496e-39
1.8004032 8.6520882 -1.3561172 9.1835496e-39
1.0694877 10.17232 1.9845355 9.1835496e-39
-1.149011 14.419249 1.9388819 9.1835496e-39
-1.819102 6.6882777 -1.3320107 9.1835496e-39
0.55290139 12.507781 -2.185801 9.1835496e-39
-2.1043353 11.56679 -0.80842054 9.1835496e-39
-1.5950172 7.9483633 -1.5922968 9.1835496e-39
-1.8895454 0.86294109 1.229293 9.1835496e-39
1.9713852 9.7742729 1.0940511 9.1835496e-39
1.3117537 9.6702023 -1.8335052 9.1835496e-39
1.866203 2.2525764 1.26364 9.1835496e-39
-0.36553174 0.63667732 -2.2239704 9.1835496e-39
1.9919993 5.193718 1.0548393 9.1835496e-39
-0.2473416 12.00876 2.2404375 9.1835496e-39
1.3932391 4.774673 1.7716086 9.1835496e-39
2.1320937 3.5039322 -0.73131949 9.1835496e-39
-2.0012341 13.836624 -1.036715 9.1835496e-39
1.9426354 7.7908325 1.142664 9.1835496e-39
1.3434494 0.95870435 1.8102293 9.1835496e-39
2.1524518 3.5865705 0.66950411 9.1835496e-39
1.0095366 1.1186247 -2.0150821 9.1835496e-39
2.1303165 1.3656224 0.73625535 9.1835496e-39
1.4547257 14.73863 1.7220702 9.1835496e-39
1.4579005 14.796294 -1.7192713 9.1835496e-39
-1.6132174 7.9920168 1.5740967 9.1835496e-39
0.79719913 6.4747357 -2.1083751 9.1835496e-39
2.2082372 2.5230248 0.45252723 9.1835496e-39
-0.71184111 2.0570087 2.1391063 9.1835496e-39
0.86451066 11.22222 -2.0816379 9.1835496e-39
1.6643738 11.5434 -1.5201696 9.1835496e-39
-0.96285295 13.128577 -2.0388687 9.1835496e-39
1.8439209 4.0494747 1.2964274 9.1835496e-39
-0.92241561 5.9035535 2.0565801 9.1835496e-39
-0.97419232 1.9157442 -2.0330913 9.1835496e-39
0.36684424 2.8855546 -2.2237625 9.1835496e-39
-1.7861334 8.819725 1.3745136 9.1835496e-39
1.7853085 10.946137 1.3755772 9.1835496e-39
-2.2253053 12.758556 -0.35710257 9.1835496e-39
2.1212554 5.2067356 0.76142323 9.1835496e-39
0.3648476 8.6828556 -2.2240787 9.1835496e-39
-2.1778123 2.4057636 -0.58221185 9.1835496e-39
-2.0678639 8.2902784 0.89634085 9.1835496e-39
0.78969842 8.4579582 2.1110756 9.1835496e-39
1.6415937 15.590334 -1.5457203 9.1835496e-39
0.20665181 0.28578627 -2.2442837 9.1835496e-39
2.2535348 3.4796095 -0.042928215 9.1835496e-39
-2.2528665 6.4335237 -0.064201668 9.1835496e-39
1.5879374 0.019292464 -1.5993767 9.1835496e-39
0.86184871 14.056399 2.0827897 9.1835496e-39
-1.9219816 10.494809 -1.177588 9.1835496e-39
1.6870589 8.9977617 1.4944382 9.1835496e-39
-1.8493066 11.249906 -1.2885023 9.1835496e-39
1.9098055 10.380037 1.1981764 9.1835496e-39
-0.40752518 7.4177713 -2.2173193 9.1835496e-39
-1.5104127 9.2117682 1.6729755 9.1835496e-39
-1.8391387 9.1154242 1.3034641 9.1835496e-39
-1.4623139 16.113598 -1.7153804 9.1835496e-39
1.7437527 10.426792 1.4291503 9.1835496e-39
1.7645153 5.0779114 1.4023833 9.1835496e-39
-2.1974981 3.3606012 0.50057042 9.1835496e-39
2.1553407 11.810478 0.65956008 9.1835496e-39
-2.2069585 14.700045 -0.45824835 9.1835496e-39
2.216388 4.6261687 0.41340503 9.1835496e-39
1.252589 9.1305199 -1.8737134 9.1835496e-39
-1.2446641 0.51378787 -1.8790991 9.1835496e-39
0.25782168 2.66278 2.2394466 9.1835496e-39
2.2423999 4.7511511 -0.22658148 9.1835496e-39
2.2442608 2.362987 0.20689616 9.1835496e-39
1.2537525 2.0028064 -1.8729227 9.1835496e-39
-2.2101939 12.019982 -0.44377407 9.1835496e-39
1.3710452 7.4742141 -1.7888237 9.1835496e-39
-1.3341417 6.3068929 1.817449 9.1835496e-39
-2.1944466 1.577777 0.51422334 9.1835496e-39
-1.6047881 13.004982 1.582526 9.1835496e-39
2.2337573 5.1851921 -0.30373964 9.1835496e-39
2.2326519 7.7064319 0.31071803 9.1835496e-39
-2.2525182 2.5249636 -0.07528124 9.1835496e-39
2.0339894 6.8017306 -0.97242868 9.1835496e-39
1.1252449 8.6516371 1.9529372 9.1835496e-39
-1.8989804 12.407779 1.2154098 9.1835496e-39
0.20736924 15.917994 2.244216 9.1835496e-39
0.25880677 3.7027662 -2.2393537 9.1835496e-39
-1.8035088 6.6585994 -1.3521135 9.1835496e-39
0.96751487 12.898877 -2.0364933 9.1835496e-39
1.1957172 2.4581697 1.9112599 9.1835496e-39
2.2394896 0.47020996 -0.25736851 9.1835496e-39
-0.92828989 7.9430127 -2.054038 9.1835496e-39
1.8544979 13.604382 -1.2808636 9.1835496e-39
0.24400994 9.8695707 -2.2407525 9.1835496e-39
-1.4270613 14.731334 1.7453732 9.1835496e-39
1.2485636 3.8408585 1.8764489 9.1835496e-39
0.81602836 1.0510848 2.1015964 9.1835496e-39
2.2500777 10.189793 0.14535753 9.1835496e-39
-1.4301097 11.569731 -1.7430084 9.1835496e-39
2.0457973 9.2027483 -0.94733334 9.1835496e-39
-2.2178168 7.2939787 -0.40438473 9.1835496e-39
-1.1648396 12.351118 -1.9295208 9.1835496e-39
-1.12498 9.982028 1.953094 9.1835496e-39
-2.174051 1.1378231 -0.59515822 9.1835496e-39
1.6141764 13.652215 1.5731376 9.1835496e-39
-1.5908581 11.388061 -1.5964561 9.1835496e-39
1.7727623 3.682512 -1.3917516 9.1835496e-39
-0.41632402 6.8014412 2.2159257 9.1835496e-39
0.20026785 4.5489087 2.2448874 9.1835496e-39
1.3128701 12.920047 1.8327464 9.1835496e-39
2.2534962 3.6540911 0.044167191 9.1835496e-39
0.8669827 8.187439 -2.0805681 9.1835496e-39
1.9670779 6.7086902 1.1013343 9.1835496e-39
-0.10068446 9.3444414 -2.2517197 9.1835496e-39
2.1859696 11.754969 -0.55214751 9.1835496e-39
1.3624605 5.2907791 1.7954829 9.1835496e-39
-2.214236 4.6322551 -0.42569029 9.1835496e-39
1.6979839 8.3633671 -1.4820462 9.1835496e-39
0.93900329 6.4430799 -2.049402 9.1835496e-39
1.4352608 10.381443 1.7390131 9.1835496e-39
2.2325096 7.262579 0.31161639 9.1835496e-39
-2.1318576 0.78435481 0.73197466 9.1835496e-39
1.9640603 9.1448584 1.1064365 9.1835496e-39
1.4221952 0.36465707 -1.7491477 9.1835496e-39
-2.2251372 5.9871178 -0.35816342 9.1835496e-39
-2.1196742 5.5738387 0.76581538 9.1835496e-39
0.24547607 14.202986 -2.2406137 9.1835496e-39
-0.79612368 4.1527834 -2.1087625 9.1835496e-39
0.29042345 6.3396683 2.2358663 9.1835496e-39
2.2408762 11.939351 0.24270247 9.1835496e-39
2.2438254 15.766418 -0.21150252 9.1835496e-39
-1.0358901 1.440071 -2.0016544 9.1835496e-39
-0.15291414 3.5118952 -2.2493634 9.1835496e-39
-2.2541337 14.390256 -0.023866195 9.1835496e-39
-2.2016332 2.8980842 -0.48207182 9.1835496e-39
2.0754466 6.6582875 -0.87881732 9.1835496e-39
-1.4130936 13.220438 1.7562079 9.1835496e-39
-1.0290394 14.00587 -2.0051451 9.1835496e-39
0.97495449 10.242462 2.0327024 9.1835496e-39
1.8836975 3.4794652 1.2378978 9.1835496e-39
-2.0010693 14.792921 -1.0370382 9.1835496e-39
-1.4924033 4.2774467 -1.688853 9.1835496e-39
2.0602751 7.2948351 0.91387743 9.1835496e-39
2.2335865 9.7376213 -0.30481747 9.1835496e-39
1.8702821 11.293707 1.2576382 9.1835496e-39
-1.68718 10.069528 1.4943008 9.1835496e-39
2.2525759 13.370638 -0.073443547 9.1835496e-39
-2.189959 11.45299 0.53429914 9.1835496e-39
-1.1647727 7.0677094 -1.9295604 9.1835496e-39
-1.9407564 12.297583 1.1458415 9.1835496e-39
1.5558102 14.596891 -1.6315038 9.1835496e-39
2.081984 5.0678148 0.86371076 9.1835496e-39
-1.9138628 5.9819503 1.1913159 9.1835496e-39
2.2302191 3.5725479 0.32607758 9.1835496e-39
-0.16371311 11.759443 -2.248343 9.1835496e-39
1.9629924 11.573835 1.1082424 9.1835496e-39
-2.2521651 11.637571 0.086511552 9.1835496e-39
0.040269312 4.8171902 -2.2536185 9.1835496e-39
-2.1870081 4.4275417 -0.54749906 9.1835496e-39
1.9277116 13.331424 1.1678991 9.1835496e-39
-1.9489412 12.275375 1.1320019 9.1835496e-39
-2.2253954 0.61968559 -0.35653439 9.1835496e-39
2.0504594 3.7157478 0.93656015 9.1835496e-39
0.62111187 8.0521965 -2.1665108 9.1835496e-39
0.59491336 14.110695 2.1741223 9.1835496e-39
1.3119999 14.017582 -1.8333378 9.1835496e-39
-1.4158218 9.0848122 -1.7540914 9.1835496e-39
2.2006009 5.9574304 -0.48669016 9.1835496e-39
-2.218112 6.2469273 0.40252084 9.1835496e-39
-1.3513739 3.3431005 1.8040824 9.1835496e-39
-0.58767235 1.2583157 -2.1762259 9.1835496e-39
1.8335731 9.9555635 1.3116534 9.1835496e-39
1.0936029 10.196999 1.9716504 9.1835496e-39
2.2367918 6.295476 -0.28457999 9.1835496e-39
-2.2545648 5.7730012 -0.010156864 9.1835496e-39
1.30972 8.9733276 -1.834887 9.1835496e-39
-1.6753595 13.46709 1.5077088 9.1835496e-39
1.4879768 5.3920822 1.6927555 9.1835496e-39
-2.198091 15.313833 -0.4979178 9.1835496e-39
-0.2715475 2.05443 2.2381494 9.1835496e-39
-0.19574261 15.177721 -2.2453151 9.1835496e-39
1.0818533 11.597728 -1.978235 9.1835496e-39
-1.8810518 11.052773 -1.2417905 9.1835496e-39
-2.1573958 11.258424 0.6524865 9.1835496e-39
-2.0733931 1.4178365 0.88356274 9.1835496e-39
-0.25969672 6.1710405 2.2392695 9.1835496e-39
2.1971855 15.459332 0.50196892 9.1835496e-39
0.16833413 14.434768 2.247906 9.1835496e-39
-1.6099355 14.938108 -1.5773785 9.1835496e-39
-0.2013284 14.495697 -2.2447872 9.1835496e-39
-1.3253626 11.934763 -1.8242567 9.1835496e-39
0.68497258 3.9241004 -2.1479578 9.1835496e-39
-0.83185446 10.839058 -2.0957694 9.1835496e-39
-1.7374467 13.208804 1.4372802 9.1835496e-39
-0.66694605 4.2233367 -2.1531949 9.1835496e-39
1.0945638 14.832744 -1.971082 9.1835496e-39
-1.5717824 5.1516623 -1.6155318 9.1835496e-39
-0.32701296 7.8942413 -2.2300711 9.1835496e-39
1.8853354 0.27503496 1.2354875 9.1835496e-39
0.71298152 8.9451017 2.1386955 9.1835496e-39
-1.8734185 3.2580204 1.253023 9.1835496e-39
-1.8590758 8.0455427 1.2741276 9.1835496e-39
-0.66259348 13.364635 2.1544592 9.1835496e-39
-0.10991716 5.4295626 2.2514298 9.1835496e-39
-0.12163375 13.763401 2.2510614 9.1835496e-39
0.72663826 4.503757 -2.133779 9.1835496e-39
-0.2407043 8.0069771 -2.2410648 9.1835496e-39
-2.0930231 1.8502233 0.83820105 9.1835496e-39
2.1020615 3.5228615 0.81473613 9.1835496e-39
1.6083977 6.9085045 1.5789163 9.1835496e-39
1.9078856 6.4522357 -1.2014232 9.1835496e-39
1.3127812 16.140923 1.8328068 9.1835496e-39
-0.8464998 6.7112875 -2.0894318 9.1835496e-39
1.7822534 0.2633732 1.3795155 9.1835496e-39
1.3191955 0.92029244 -1.8284477 9.1835496e-39
-1.5293906 11.278062 1.6562445 9.1835496e-39
1.9790316 5.2090297 -1.0802897 9.1835496e-39
-2.1791992 0.40899596 -0.57743877 9.1835496e-39
-2.2232671 10.417022 0.36997253 9.1835496e-39
-1.3502189 11.267575 1.8049783 9.1835496e-39
1.7867894 7.5927744 -1.3736683 9.1835496e-39
0.3136985 10.636229 -2.2321799 9.1835496e-39
0.45264995 1.110863 -2.2082098 9.1835496e-39
-1.8233169 15.898667 -1.3265769 9.1835496e-39
-1.4374325 10.33379 -1.7373161 9.1835496e-39
-1.963665 11.424047 -1.1071048 9.1835496e-39
-0.33817667 11.092283 2.2283032 9.1835496e-39
-1.2819092 13.359968 1.8537873 9.1835496e-39
-2.244864 10.969189 -0.20051351 9.1835496e-39
1.67472 5.755435 -1.5084341 9.1835496e-39
-1.402573 7.2352176 -1.7643683 9.1835496e-39
0.80853534 11.864462 2.1042941 9.1835496e-39
2.0945964 14.653317 -0.83456492 9.1835496e-39
0.97994459 8.3343506 2.0301602 9.1835496e-39
1.1268677 7.3043013 1.9519776 9.1835496e-39
1.0939941 10.058601 1.9714189 9.1835496e-39
2.235908 0.19972959 -0.2901603 9.1835496e-39
-0.85825372 8.7368135 2.0843453 9.1835496e-39
-1.4399241 12.924226 -1.7351196 9.1835496e-39
2.2514911 2.8168919 -0.10796505 9.1835496e-39
-2.2489831 10.02361 -0.15693735 9.1835496e-39
1.7766273 0.49522775 1.3867688 9.1835496e-39
1.9774058 6.0238495 -1.0834806 9.1835496e-39
-1.2288563 11.535792 -1.8898419 9.1835496e-39
-1.9063452 2.9906709 1.2040275 9.1835496e-39
2.1943111 6.3728795 0.51482892 9.1835496e-39
1.7599882 11.277005 -1.4082198 9.1835496e-39
1.8519799 14.248329 -1.2845688 9.1835496e-39
-1.7259066 14.544952 -1.4503744 9.1835496e-39
-2.2496011 14.940986 -0.15040308 9.1835496e-39
2.0627568 4.4712768 -0.90814215 9.1835496e-39
0.49883392 0.70617181 -2.1978865 9.1835496e-39
1.1823391 8.9735737 -1.9191718 9.1835496e-39
1.5911123 6.6033425 -1.5962018 9.1835496e-39
-2.2515464 6.42589 0.10620314 9.1835496e-39
-1.1754432 11.278136 1.92325 9.1835496e-39
2.2404568 6.6297183 -0.24713674 9.1835496e-39
-0.46225184 0.24876353 -2.2060635 9.1835496e-39
1.4482172 15.297787 -1.7278082 9.1835496e-39
2.2276571 0.94639087 -0.34225401 9.1835496e-39
1.8841076 9.1759357 -1.2372944 9.1835496e-39
-0.88298875 12.447444 2.0736418 9.1835496e-39
-1.7496035 12.635596 1.4216077 9.1835496e-39
2.0918844 15.101871 0.84083259 9.1835496e-39
-2.2086401 7.9215126 -0.45072502 9.1835496e-39
2.1078637 2.3098505 -0.79861975 9.1835496e-39
-2.2365735 10.10465 0.28595805 9.1835496e-39
1.8723512 4.4694338 1.2545934 9.1835496e-39
1.6795344 10.033753 1.5029731 9.1835496e-39
1.0487978 14.953749 1.9950776 9.1835496e-39
-0.23944961 7.6083651 2.2411835 9.1835496e-39
1.8265753 9.5630474 -1.3219504 9.1835496e-39
0.94565022 14.484323 2.0465255 9.1835496e-39
2.1892471 2.0999222 0.53748333 9.1835496e-39
1.8054776 6.6668992 1.3495753 9.1835496e-39
0.78650975 10.65419 -2.1122236 9.1835496e-39
0.87687832 5.6242208 2.0762858 9.1835496e-39
1.5528935 2.5209444 1.6344204 9.1835496e-39
-2.2024665 11.717896 -0.47834367 9.1835496e-39
2.1909723 7.4158115 0.52976638 9.1835496e-39
1.4970894 16.15733 1.6847217 9.1835496e-39
0.24837686 9.684989 -2.2403395 9.1835496e-39
-0.39775616 4.9283376 -2.2188666 9.1835496e-39
1.0699104 11.108115 -1.9843202 9.1835496e-39
2.1905668 1.5752497 -0.53158063 9.1835496e-39
-1.65046 8.7017088 -1.5359516 9.1835496e-39
1.5399247 4.6201935 1.6469573 9.1835496e-39
-2.2501044 0.2119782 0.14507417 9.1835496e-39
-1.6904382 2.6894333 1.4906051 9.1835496e-39
-0.66741931 6.8352237 -2.1530573 9.1835496e-39
-1.876514 13.349078 1.2484682 9.1835496e-39
-1.9720504 5.6165409 1.0929263 9.1835496e-39
2.1732988 9.9103746 0.5977475 9.1835496e-39
-1.0255458 0.413919 -2.0069251 9.1835496e-39
-1.6996288 6.4236598 1.4801805 9.1835496e-39
-0.76831746 15.119953 -2.1187735 9.1835496e-39
-2.0696375 0.082375929 -0.89224142 9.1835496e-39
-2.1775982 0.47371274 0.58294857 9.1835496e-39
-2.2073236 10.407066 0.45661417 9.1835496e-39
-0.51420999 13.759435 -2.1944494 9.1835496e-39
-1.6394556 8.7277269 1.5478585 9.1835496e-39
-0.49671561 10.075809 -2.1983597 9.1835496e-39
-1.4007821 9.1930656 -1.7657576 9.1835496e-39
-1.0998943 3.931757 1.9679294 9.1835496e-39
1.0535902 6.4285603 -1.9926357 9.1835496e-39
0.30318603 15.024622 2.2338448 9.1835496e-39
-1.1317017 15.082267 1.9491187 9.1835496e-39
-1.3115807 15.190426 1.8336227 9.1835496e-39
-1.6448401 12.009111 1.542326 9.1835496e-39
2.2232242 11.438225 -0.37024301 9.1835496e-39
1.1300483 0.72706831 1.9500965 9.1835496e-39
2.019084 13.026663 1.0016825 9.1835496e-39
-2.2510705 10.820817 0.12134145 9.1835496e-39
1.6050212 11.871207 1.5822929 9.1835496e-39
0.88586819 8.8483448 -2.0723958 9.1835496e-39
-2.2522855 9.1729822 -0.082685873 9.1835496e-39
1.2791532 0.23998713 -1.8556602 9.1835496e-39
2.0966196 3.020436 -0.82985115 9.1835496e-39
-0.63366526 10.649078 2.1628637 9.1835496e-39
-0.37379968 8.5254116 2.222661 9.1835496e-39
-1.8753228 14.986682 -1.2502207 9.1835496e-39
-1.1384568 12.4235 -1.9451239 9.1835496e-39
1.8013979 3.8350172 -1.3548347 9.1835496e-39
-1.0133607 1.5140952 2.0131335 9.1835496e-39
-1.5488467 15.312573 -1.6384673 9.1835496e-39
0.84920502 7.1158743 2.0882611 9.1835496e-39
-0.76082301 10.857415 -2.1214714 9.1835496e-39
-0.34837565 5.1016393 -2.2266877 9.1835496e-39
-0.53575659 7.5515814 -2.1896331 9.1835496e-39
1.4751173 15.960758 1.7040925 9.1835496e-39
-0.51289958 6.2878003 -2.1947424 9.1835496e-39
0.84951693 14.85705 -2.0881262 9.1835496e-39
1.0684605 0.15180972 1.985059 9.1835496e-39
-1.9361774 11.9971 1.153584 9.1835496e-39
1.6556847 0.92416823 -1.5300255 9.1835496e-39
-1.8087945 4.1642437 1.345299 9.1835496e-39
0.87324464 15.278576 2.0778584 9.1835496e-39
-1.8537602 11.573555 -1.2819493 9.1835496e-39
2.1891806 15.973044 -0.537781 9.1835496e-39
-0.84202415 5.3111467 -2.0913687 9.1835496e-39
-0.19589737 5.1670513 -2.2453005 9.1835496e-39
-0.15869406 1.7294217 2.2488172 9.1835496e-39
-1.3792851 7.3967743 1.7824322 9.1835496e-39
-2.2529371 5.1840167 0.061954603 9.1835496e-39
0.8506456 9.8037443 -2.0876379 9.1835496e-39
1.6413295 6.5729012 1.5459845 9.1835496e-39
2.0519676 12.808632 -0.9330743 9.1835496e-39
2.0019302 12.544266 1.0353487 9.1835496e-39
-2.2402532 9.4461212 -0.24929175 9.1835496e-39
-2.1898417 0.75631833 -0.53482419 9.1835496e-39
-1.9078866 0.20287156 1.2014215 9.1835496e-39
0.10606888 1.8333989 -2.2515507 9.1835496e-39
0.35701618 2.5611672 2.2253191 9.1835496e-39
-0.58794153 4.0905352 -2.1761477 9.1835496e-39
-2.1911094 15.24947 -0.52915204 9.1835496e-39
-0.96554154 15.84939 2.0374987 9.1835496e-39
-0.30594999 0.08012937 2.233407 9.1835496e-39
2.0763237 9.9833679 0.87679011 9.1835496e-39
-1.9846079 5.5256896 1.0693456 9.1835496e-39
2.0680103 7.1752024 0.89600176 9.1835496e-39
1.6790034 10.994534 1.5035756 9.1835496e-39
-0.66392547 6.2469816 2.1540723 9.1835496e-39
-2.0674026 3.7809534 0.89740646 9.1835496e-39
-0.89344192 6.220377 -2.0691183 9.1835496e-39
-2.2224593 2.8929491 0.37507296 9.1835496e-39
-1.0353732 10.169932 -2.0019178 9.1835496e-39
-0.62509048 4.7122002 -2.165355 9.1835496e-39
-0.2173529 5.113203 -2.2432723 9.1835496e-39
-1.4386595 6.7203827 1.7362344 9.1835496e-39
-2.0584679 15.833006 -0.91805351 9.1835496e-39
2.2140601 0.64313298 0.42647743 9.1835496e-39
-2.2536011 2.5947022 0.040819868 9.1835496e-39
0.51255453 2.8591077 2.1948195 9.1835496e-39
-2.195164 9.5641537 -0.51101333 9.1835496e-39
2.2070119 14.720613 -0.45800841 9.1835496e-39
-0.77019978 12.71471 2.1180959 9.1835496e-39
-0.79067409 9.1614017 -2.1107244 9.1835496e-39
2.1480737 16.143316 0.68457341 9.1835496e-39
-2.1798785 4.890204 0.57510012 9.1835496e-39
-2.035706 12.791177 0.96905982 9.1835496e-39
-2.2511563 12.68354 0.11861807 9.1835496e-39
2.0220208 15.763173 0.99591875 9.1835496e-39
2.0046701 6.7258749 -1.0299711 9.1835496e-39
-0.035993662 13.761861 2.2537527 9.1835496e-39
0.67959058 0.69911879 -2.1495214 9.1835496e-39
2.1103697 9.0847187 0.79165918 9.1835496e-39
-1.6553968 12.810943 1.530352 9.1835496e-39
2.1880171 3.9283428 0.54298639 9.1835496e-39
1.9366786 14.275576 1.1527367 9.1835496e-39
2.1512825 14.234557 -0.67352766 9.1835496e-39
-0.64086938 15.377911 -2.1607709 9.1835496e-39
-2.1313827 11.27039 0.73329389 9.1835496e-39
-2.2434499 14.29981 0.21547323 9.1835496e-39
0.034542229 13.806003 2.2537985 9.1835496e-39
-1.9559304 10.953239 1.1201836 9.1835496e-39
-2.1979661 16.144873 0.49847746 9.1835496e-39
2.0295811 0.61100399 0.98108065 9.1835496e-39
2.0727863 5.9192886 -0.88496542 9.1835496e-39
0.44407782 15.404427 -2.2101259 9.1835496e-39
2.2514169 13.972226 -0.1103278 9.1835496e-39
1.5531907 11.781349 1.6341234 9.1835496e-39
0.62785816 10.775401 2.1645508 9.1835496e-39
-0.28212833 7.1925564 -2.2371492 9.1835496e-39
1.9645827 2.9746826 -1.1055536 9.1835496e-39
-0.64473569 10.611216 2.1596475 9.1835496e-39
1.1823628 15.529086 -1.9191577 9.1835496e-39
1.2367514 12.314182 -1.8844765 9.1835496e-39
