ply
format ascii 1.0
comment PCL generated
element vertex 1195
property float x
property float y
property float z
property uchar red
property uchar green
property uchar blue
element camera 0
property float view_px
property float view_py
property float view_pz
property float x_axisx
property float x_axisy
property float x_axisz
property float y_axisx
property float y_axisy
property float y_axisz
property float z_axisx
property float z_axisy
property float z_axisz
property float focal
property float scalex
property float scaley
property float centerx
property float centery
property int viewportx
property int viewporty
property float k1
property float k2
end_header
0.55579501 18.097828 0.84385717 100 0 0
-0.59607339 20.396942 -0.81629992 100 0 0
0.23085859 18.622463 0.98367077 100 0 0
0.3405 18.922853 -0.95123714 100 0 0
0.029988376 14.978257 -1.0098975 100 0 0
-0.13332556 11.156149 1.0018183 100 0 0
-0.35807323 19.160374 0.94491041 100 0 0
0.80382538 12.53078 0.61215538 100 0 0
0.010416139 13.04694 1.0105126 100 0 0
0.82863909 19.244793 -0.5781877 100 0 0
0.25786921 19.229511 -0.97719878 100 0 0
-0.64202976 19.249847 0.78065246 100 0 0
0.59899282 12.786302 0.81403536 100 0 0
-0.97576374 21.288578 0.26280835 100 0 0
0.33055854 15.854754 -0.95481634 100 0 0
0.069136664 20.841919 1.0083096 100 0 0
-0.66315448 19.220453 0.76227254 100 0 0
0.74694777 21.593075 -0.68053699 100 0 0
0.45518655 11.590443 0.90200317 100 0 0
1.0105662 14.421027 0.0087024011 100 0 0
-0.098786175 17.758276 1.0055069 100 0 0
0.62667006 13.337639 0.79256666 100 0 0
1.0076244 19.628723 -0.07638514 100 0 0
0.7564531 15.139225 -0.66975534 100 0 0
0.72887123 20.509954 0.69996685 100 0 0
-0.47204828 21.045616 -0.89341164 100 0 0
0.272475 19.71817 0.97295535 100 0 0
-1.0105084 16.214695 -0.010544569 100 0 0
-0.97352052 12.924768 -0.27052999 100 0 0
-0.6893878 15.733682 -0.7391448 100 0 0
0.52955943 13.246087 -0.86062175 100 0 0
-0.3061659 13.084115 0.96316725 100 0 0
-0.44522464 14.75907 -0.90707898 100 0 0
0.42920303 21.956148 0.91515094 100 0 0
-0.65244508 11.884733 -0.77171427 100 0 0
0.141065 12.790668 -1.0005925 100 0 0
0.69823611 20.73032 -0.73060191 100 0 0
0.012596942 16.819012 1.010444 100 0 0
1.0057902 17.153316 -0.095789962 100 0 0
-0.57309175 20.689079 0.8321023 100 0 0
0.094563909 20.128241 1.005906 100 0 0
-0.95679832 20.239101 0.32505363 100 0 0
-0.5024665 15.317368 0.87664449 100 0 0
0.96487463 18.394068 0.30028895 100 0 0
0.94778568 13.18401 0.3500869 100 0 0
0.62726933 17.465979 0.7921018 100 0 0
-0.94652575 14.437512 -0.3535867 100 0 0
-0.45006007 13.290319 -0.90461522 100 0 0
-0.71120715 18.690628 0.71763086 100 0 0
0.50937134 21.435112 -0.87256092 100 0 0
0.93612224 13.885965 0.380741 100 0 0
-0.4058446 17.248304 0.92525899 100 0 0
-0.0616998 15.117748 -1.0089009 100 0 0
-0.4379344 15.913259 0.91079354 100 0 0
0.94138223 16.059521 -0.36787319 100 0 0
-0.10879933 12.108615 -1.0045604 100 0 0
-0.66544676 19.640697 0.76025164 100 0 0
0.9495104 16.380556 0.34529632 100 0 0
-0.34639156 13.893865 0.94911611 100 0 0
-0.61773932 14.363297 -0.79949403 100 0 0
-0.22920725 20.229425 -0.98403984 100 0 0
-0.62929964 19.000031 0.79052699 100 0 0
0.67761564 11.696871 -0.7495234 100 0 0
0.84885579 17.781178 -0.54843968 100 0 0
-0.41260505 13.804381 -0.92233348 100 0 0
0.40286753 13.565814 -0.92654729 100 0 0
0.8895604 18.31797 0.47960681 100 0 0
-0.59808958 14.466488 0.81473601 100 0 0
0.75019312 19.301497 -0.67685598 100 0 0
-0.53054571 13.815201 -0.86003852 100 0 0
0.99349475 14.866037 0.18587875 100 0 0
0.13596874 19.571564 1.0013998 100 0 0
-0.34298229 21.894331 -0.95034349 100 0 0
0.19864318 15.93084 -0.99087179 100 0 0
-0.98649108 14.921562 -0.21824138 100 0 0
1.0080292 13.242241 -0.072104707 100 0 0
-0.29286823 15.730001 0.96703064 100 0 0
1.0068117 14.473476 0.084982902 100 0 0
0.41430944 16.864117 -0.92159599 100 0 0
0.90170437 17.671419 0.45577297 100 0 0
-0.64782017 12.581776 -0.77579153 100 0 0
-0.94350088 15.072134 -0.36198866 100 0 0
0.56967658 16.489355 0.83442324 100 0 0
0.50491351 21.283077 0.87519729 100 0 0
0.87254602 17.807703 -0.50939667 100 0 0
-0.6095987 16.349133 0.80580866 100 0 0
0.25755125 16.683411 0.97729111 100 0 0
0.5759939 19.504814 -0.83013004 100 0 0
-0.48071665 15.346796 0.88899493 100 0 0
0.9785822 15.067472 -0.25310731 100 0 0
-0.72807944 11.927568 0.70075858 100 0 0
-0.26730695 13.439282 0.97445691 100 0 0
0.8897239 20.31208 0.47928578 100 0 0
-0.83921254 18.040953 -0.5626294 100 0 0
0.047677994 13.71504 -1.0093415 100 0 0
0.10840755 20.931934 1.0045974 100 0 0
0.58640873 16.282536 -0.82305217 100 0 0
-0.45427847 18.115503 -0.90246576 100 0 0
0.91535366 16.586176 0.4287346 100 0 0
0.86226058 14.142216 -0.52678835 100 0 0
0.70409983 18.676983 -0.72473824 100 0 0
0.98719507 17.650267 -0.21509142 100 0 0
-0.90164608 18.600117 0.4558872 100 0 0
0.97032654 16.274982 -0.28152364 100 0 0
-0.47339141 19.448763 0.89272732 100 0 0
0.89036477 12.804091 0.478028 100 0 0
0.36335701 17.92528 0.94300818 100 0 0
0.99426937 16.952477 -0.1809877 100 0 0
-0.90622127 18.298723 0.446908 100 0 0
-0.71616769 12.655554 0.71267033 100 0 0
0.75522065 19.585415 -0.67115337 100 0 0
-0.79050624 16.457615 -0.62932622 100 0 0
0.83792233 11.252708 0.56452775 100 0 0
-1.0099051 21.528711 0.029747525 100 0 0
1.0080253 12.871356 -0.072145522 100 0 0
-0.99409682 19.842463 0.18207742 100 0 0
-0.41801128 15.383474 0.919994 100 0 0
-0.21435116 13.514358 -0.9873606 100 0 0
-1.0032127 16.999428 -0.1230573 100 0 0
0.97123098 17.72855 0.27841076 100 0 0
-0.12729357 11.406863 1.0027736 100 0 0
-0.97070765 20.854092 -0.28021175 100 0 0
0.48538244 16.69278 0.88661754 100 0 0
0.14408286 15.175501 1.0001146 100 0 0
-0.35910904 14.440581 0.94453758 100 0 0
0.53862035 16.778152 0.85526323 100 0 0
0.98070896 21.541071 0.24410889 100 0 0
0.17406932 18.534748 -0.99536514 100 0 0
0.95559496 12.178326 0.32839581 100 0 0
0.94751781 12.488745 -0.350831 100 0 0
-0.57283586 18.858158 0.83227623 100 0 0
0.54440141 11.148712 0.85160029 100 0 0
-0.38650903 17.794575 0.93362617 100 0 0
-0.067429371 18.247961 1.008471 100 0 0
0.96883857 11.488803 -0.28664517 100 0 0
-0.25485304 19.99873 -0.97807497 100 0 0
-0.73839664 20.859058 -0.69023645 100 0 0
0.65786707 13.282634 -0.76693404 100 0 0
-0.89045066 14.001212 0.4778595 100 0 0
-0.18584687 15.842527 -0.99349976 100 0 0
0.67090482 17.672979 0.75543964 100 0 0
-0.96925282 17.352028 -0.28521934 100 0 0
-0.93540788 16.298952 -0.38239202 100 0 0
-0.168605 21.003883 0.99623072 100 0 0
0.34409487 16.758156 0.94994295 100 0 0
-0.25427985 18.339687 0.97824156 100 0 0
0.96279228 12.431827 0.30745712 100 0 0
0.19336502 12.412788 -0.99205154 100 0 0
0.276196 17.818291 0.97187436 100 0 0
0.50198752 19.560211 -0.87692773 100 0 0
-0.1530152 14.150453 -0.99869978 100 0 0
0.65337265 19.04073 0.77089643 100 0 0
-0.70612669 12.281807 -0.72271132 100 0 0
-0.64347613 15.500341 0.77953053 100 0 0
-0.93718702 14.414202 -0.37828064 100 0 0
-0.95666552 11.63454 -0.32542229 100 0 0
-1.0052007 18.623171 0.10202642 100 0 0
-0.8235051 11.71811 0.58574218 100 0 0
0.90616179 17.839428 0.44702467 100 0 0
-0.96020091 21.208944 -0.31560251 100 0 0
0.21970491 21.768223 -0.98616385 100 0 0
0.73963785 18.534336 0.68882865 100 0 0
-0.27631655 12.414524 -0.97183931 100 0 0
0.59018314 18.325924 -0.82048702 100 0 0
0.44624019 16.425756 -0.90656155 100 0 0
-0.91600305 20.133781 -0.42723387 100 0 0
0.3535229 13.732082 -0.9465487 100 0 0
0.68944204 14.788383 0.73909688 100 0 0
-0.90637124 21.88615 0.44661361 100 0 0
0.8066963 21.809683 0.60845423 100 0 0
0.80903131 14.954939 -0.60544389 100 0 0
0.92269123 16.165073 -0.41177845 100 0 0
0.0070722718 21.165016 -1.0106176 100 0 0
0.93923712 19.240463 -0.37354285 100 0 0
0.022070346 12.682786 -1.0101463 100 0 0
-0.80270255 13.337764 0.61360288 100 0 0
0.6300776 18.180206 0.78992355 100 0 0
0.92976832 16.094141 0.39542422 100 0 0
0.92246091 13.78833 -0.41231066 100 0 0
0.97843212 17.317535 -0.25362396 100 0 0
0.99752665 12.059538 -0.1604224 100 0 0
-0.23407796 14.711692 -0.98295116 100 0 0
-0.38942337 16.41188 0.93236506 100 0 0
-0.76319855 16.944883 0.66210413 100 0 0
-0.27091286 18.795721 0.9734093 100 0 0
-0.80667531 15.96777 -0.60848123 100 0 0
0.65245539 16.071548 -0.77170509 100 0 0
-0.93959057 17.251005 -0.37272626 100 0 0
0.82548672 17.328745 0.58282638 100 0 0
-0.95485598 14.583957 -0.33044842 100 0 0
-0.99886149 12.015981 0.1519942 100 0 0
-0.60497403 14.735528 -0.80939573 100 0 0
0.3670131 14.56961 0.94169188 100 0 0
0.42188039 20.713558 -0.91831964 100 0 0
-0.71167427 15.809134 0.71716374 100 0 0
-0.48801637 17.67519 -0.88519025 100 0 0
-0.20474187 14.322462 0.98950851 100 0 0
1.0047934 13.003101 0.10633349 100 0 0
1.0091546 18.092693 -0.053629924 100 0 0
-0.55199015 20.7701 -0.84644294 100 0 0
0.78260934 14.353745 0.63950694 100 0 0
0.007935795 12.226128 1.0105904 100 0 0
1.0102425 15.540607 -0.019005938 100 0 0
0.71897829 17.37924 0.70985985 100 0 0
-0.93640214 17.930178 -0.38009405 100 0 0
0.93147552 17.891144 0.39147916 100 0 0
1.0059817 18.880905 0.093763128 100 0 0
-0.92249811 16.674452 -0.41222459 100 0 0
0.19124551 19.404072 -0.99252534 100 0 0
-0.85765636 12.523033 -0.53457367 100 0 0
0.94480568 11.716123 -0.35836419 100 0 0
0.46311191 13.329123 -0.89796495 100 0 0
0.92960006 17.708221 -0.39581299 100 0 0
-0.82984716 17.853991 -0.57641017 100 0 0
0.31789833 11.284035 0.95937431 100 0 0
1.0032756 11.071611 0.12238992 100 0 0
-0.51925886 18.214624 -0.86671352 100 0 0
1.0037329 17.51861 0.11755259 100 0 0
-0.70776743 11.793125 -0.72107059 100 0 0
-0.88083071 20.640987 -0.495388 100 0 0
-0.96591896 19.186924 0.29669449 100 0 0
-0.30294934 13.827517 -0.96410179 100 0 0
0.99295425 16.292923 -0.18929139 100 0 0
-0.98474205 15.274481 0.22606589 100 0 0
1.0070169 17.966797 -0.082812063 100 0 0
0.87853485 17.181149 -0.49927002 100 0 0
0.9093467 14.34697 -0.44077411 100 0 0
-0.27840129 15.639136 0.97123367 100 0 0
0.99277556 14.779794 0.1901262 100 0 0
0.65812141 11.25334 0.7667098 100 0 0
-0.04582471 21.8293 1.0093998 100 0 0
-1.0083691 16.886578 -0.068507627 100 0 0
0.65543646 17.506824 0.76907688 100 0 0
0.69178236 21.62709 0.73703372 100 0 0
-0.71694517 16.873232 -0.71189284 100 0 0
0.49685562 21.714846 0.87996268 100 0 0
0.47445554 20.699642 -0.89218509 100 0 0
-0.75244266 16.09935 -0.67430437 100 0 0
0.7974298 17.45717 0.62040037 100 0 0
0.91281235 19.165592 0.43397224 100 0 0
0.78284073 16.179642 0.63920856 100 0 0
0.61979103 17.252739 0.79790258 100 0 0
0.99471068 11.438554 0.1782015 100 0 0
-0.57850832 21.097507 -0.82842124 100 0 0
-0.5493077 12.509116 -0.84826595 100 0 0
0.3611024 20.982082 0.94381982 100 0 0
-0.3729516 21.765224 0.939493 100 0 0
-0.56734842 12.10507 -0.83600551 100 0 0
0.043046158 13.144423 1.009487 100 0 0
-0.25876305 18.442524 -0.97693902 100 0 0
-0.70084423 20.890823 -0.72799379 100 0 0
-0.9864943 15.738413 0.21822652 100 0 0
0.89400804 18.371502 -0.4708778 100 0 0
0.98651904 21.441343 -0.2181159 100 0 0
0.89454603 11.898319 0.46982199 100 0 0
0.22314048 13.005201 0.98539591 100 0 0
-0.35885191 20.941977 0.94463003 100 0 0
-0.25465405 17.732445 0.97813284 100 0 0
-0.98126769 14.208904 0.24160905 100 0 0
0.56182539 14.516172 -0.83975887 100 0 0
-0.92950684 18.184662 -0.39602843 100 0 0
0.80365223 18.941875 -0.61237866 100 0 0
-0.57636529 18.023584 0.82987761 100 0 0
0.97087801 19.960491 0.27962533 100 0 0
0.63240933 15.716293 0.78811479 100 0 0
0.023643566 20.706425 1.0100968 100 0 0
-0.99061626 20.526285 -0.19978629 100 0 0
0.50050294 17.00634 -0.87780571 100 0 0
0.013565944 13.193406 -1.0104135 100 0 0
-0.81806755 17.215521 0.59374326 100 0 0
0.60549062 20.864822 -0.80899507 100 0 0
0.14379579 14.736441 1.00016 100 0 0
-0.57119089 20.214869 -0.83339417 100 0 0
0.4754222 16.293442 0.89169252 100 0 0
-0.89816952 12.601066 0.46271044 100 0 0
0.92181301 21.903461 0.41380793 100 0 0
-0.31637055 13.832453 0.95992434 100 0 0
-0.94817424 12.664382 0.34900779 100 0 0
0.72355008 18.893709 0.70528787 100 0 0
-0.77738708 18.844614 -0.64601046 100 0 0
-0.79124755 12.726826 -0.62837076 100 0 0
-0.21852611 19.505627 -0.98642743 100 0 0
-0.89100158 18.971483 0.47677821 100 0 0
-0.61710006 13.894213 -0.79998994 100 0 0
-0.59405911 16.739912 0.81785297 100 0 0
-0.81642252 14.969019 -0.5959152 100 0 0
-0.7104702 14.673478 -0.71836782 100 0 0
-0.23730612 15.549985 -0.98222953 100 0 0
0.49627888 17.977522 0.8803038 100 0 0
-0.97417563 12.027828 0.26827496 100 0 0
-0.8479557 20.784527 0.54976416 100 0 0
-0.85196233 17.042389 -0.5438686 100 0 0
0.8578707 20.857447 -0.53421116 100 0 0
-0.20765615 19.3018 -0.98885715 100 0 0
0.97471762 19.580759 0.26640949 100 0 0
0.96942222 11.3979 0.28463626 100 0 0
0.97322196 12.946839 -0.27155727 100 0 0
-0.42932519 21.170572 0.91509801 100 0 0
0.98675179 16.798584 -0.21707498 100 0 0
-0.59905022 16.194231 -0.81399083 100 0 0
0.077588163 19.414501 -1.0075107 100 0 0
0.46658188 13.864069 0.89619684 100 0 0
0.80417597 14.677121 0.6117034 100 0 0
0.29357654 20.036148 0.96682489 100 0 0
-0.57426572 19.562386 -0.83130449 100 0 0
0.73959792 19.206573 -0.68887389 100 0 0
0.94690549 20.108282 -0.35253167 100 0 0
0.56807637 20.644276 0.83551079 100 0 0
0.968831 13.499043 -0.28667134 100 0 0
-0.99250036 12.627643 0.19135718 100 0 0
-0.37198555 20.672392 0.93990165 100 0 0
0.87375832 16.966496 0.50734681 100 0 0
-1.0103515 20.800215 -0.015537735 100 0 0
1.0099204 18.981516 -0.029256579 100 0 0
0.33112824 15.110096 0.9546113 100 0 0
-0.96141601 21.93261 0.3121939 100 0 0
-0.72945982 21.203897 0.69937819 100 0 0
-0.88836241 12.526073 -0.48195788 100 0 0
0.15821128 16.140722 -0.99787682 100 0 0
0.72773802 16.348663 0.70110005 100 0 0
0.8575781 18.838236 0.534706 100 0 0
0.9133743 13.69618 0.43286929 100 0 0
-0.524059 21.059551 -0.86387467 100 0 0
0.23112816 17.172289 -0.98361051 100 0 0
0.55166548 17.257668 0.84666359 100 0 0
0.44716427 18.287508 -0.90609068 100 0 0
0.47180235 16.796171 -0.89353687 100 0 0
0.72531724 18.947752 0.70352072 100 0 0
0.99383986 18.137354 0.18369976 100 0 0
-1.0077741 11.881385 -0.074802741 100 0 0
0.24186625 20.392908 0.98121023 100 0 0
0.82151091 21.336647 -0.58867651 100 0 0
0.047253013 19.360813 -1.0093548 100 0 0
0.68871737 15.309378 -0.73973584 100 0 0
-0.93320459 18.887671 0.38748327 100 0 0
0.67856312 15.433021 0.7486881 100 0 0
0.47380367 11.374737 -0.89251727 100 0 0
-0.96728373 21.336933 0.29199708 100 0 0
0.31716561 15.125338 0.95963812 100 0 0
1.0092059 19.880461 -0.051991649 100 0 0
-0.35618263 12.360465 0.94559109 100 0 0
-0.95999312 12.509812 0.31617963 100 0 0
-1.0090375 19.624897 -0.057354577 100 0 0
1.0066583 20.735888 -0.086604431 100 0 0
0.77656364 12.810595 -0.64694446 100 0 0
-0.83323044 15.139 0.57143182 100 0 0
1.0091701 19.230963 -0.053135846 100 0 0
0.98503435 19.949448 0.22475807 100 0 0
0.74032658 18.233852 0.68804741 100 0 0
1.0101296 17.208893 0.022600001 100 0 0
0.48049349 11.578189 -0.8891086 100 0 0
-0.56922859 20.495319 -0.8347277 100 0 0
-0.82281917 12.113749 -0.58675146 100 0 0
-0.18207009 12.625719 0.99409801 100 0 0
-1.0076649 11.196044 -0.075957574 100 0 0
-0.96943986 14.785489 0.28457567 100 0 0
0.87529123 16.685282 -0.50475466 100 0 0
-0.10198597 20.069996 -1.0052044 100 0 0
0.98839962 21.634781 0.20970297 100 0 0
0.54696274 17.557507 -0.8498596 100 0 0
-0.48822856 13.22834 -0.88506484 100 0 0
-0.18646541 11.581649 -0.99340183 100 0 0
0.90738618 17.607468 -0.44462168 100 0 0
0.99124944 13.77283 0.19695348 100 0 0
0.86298442 16.459208 -0.52556443 100 0 0
1.0100113 17.335983 0.026363276 100 0 0
-0.92316812 12.864334 0.4106763 100 0 0
0.99019092 16.727962 0.20168881 100 0 0
-0.033837624 12.749036 1.0097765 100 0 0
-0.26397637 17.486782 0.97542447 100 0 0
0.64007306 21.184952 0.78217024 100 0 0
0.7158736 11.318388 0.71296442 100 0 0
-0.55231214 17.967831 -0.84622407 100 0 0
-0.14350666 13.928849 1.0002058 100 0 0
0.95967603 16.101028 -0.31706032 100 0 0
-0.89118493 17.312294 -0.4764185 100 0 0
-0.92604023 15.599669 -0.4040392 100 0 0
0.81459683 12.40691 -0.59826893 100 0 0
-0.71623546 14.823023 -0.7126025 100 0 0
0.63812566 16.724548 -0.7836808 100 0 0
-0.82071042 17.810774 -0.58985454 100 0 0
-0.49398091 20.069424 -0.88166279 100 0 0
-0.095632419 12.799673 -1.005805 100 0 0
-0.69261062 15.223764 0.73622733 100 0 0
0.70048577 13.970116 -0.72835219 100 0 0
-0.052478019 13.198874 -1.0091907 100 0 0
-0.93488312 21.123768 0.38360441 100 0 0
0.70379752 12.701177 -0.7250405 100 0 0
0.23838168 16.103851 -0.98198915 100 0 0
0.22268847 18.691917 0.98549694 100 0 0
1.0072321 11.485061 0.080535799 100 0 0
0.52087694 11.376656 -0.86575657 100 0 0
-0.84223354 16.235897 0.55818403 100 0 0
-0.5248276 13.891694 -0.86342013 100 0 0
-0.71413434 12.830971 -0.71470368 100 0 0
0.23114192 16.654846 0.98360741 100 0 0
-0.92072308 14.065868 0.41632649 100 0 0
-0.22635058 13.4916 -0.98467839 100 0 0
0.88096243 17.937855 0.49516523 100 0 0
0.31656259 15.063673 -0.9598552 100 0 0
0.57370067 21.881313 0.83168852 100 0 0
-0.33806401 13.840433 0.95211422 100 0 0
-0.64211994 18.358414 0.78058261 100 0 0
1.0047131 15.186825 -0.10718442 100 0 0
-0.9418124 11.818328 0.36667842 100 0 0
-0.35360619 13.181847 -0.94651866 100 0 0
-0.34796536 21.38839 0.94854951 100 0 0
0.5522148 16.51923 -0.84629035 100 0 0
0.28669277 21.248554 0.96882474 100 0 0
1.00747 17.058754 0.078018993 100 0 0
0.71245563 19.557182 0.71638244 100 0 0
0.64848542 18.622414 0.77520514 100 0 0
-0.20938566 15.708422 -0.98847055 100 0 0
-0.78830147 12.57175 -0.63216877 100 0 0
0.57201189 13.033276 0.83283615 100 0 0
-0.017353037 17.012259 1.0102946 100 0 0
-0.62781978 14.050459 -0.79167485 100 0 0
0.061684035 14.305521 -1.0089014 100 0 0
-0.98937517 18.564144 0.20533845 100 0 0
-0.91355717 16.653841 -0.4325105 100 0 0
-0.17544205 19.737949 0.99514782 100 0 0
-0.81232429 11.717552 -0.60119873 100 0 0
-0.72480869 18.666229 0.70402932 100 0 0
1.0043243 15.302222 0.11129564 100 0 0
0.4583967 19.122089 0.90036744 100 0 0
-1.0077277 17.855865 0.075292662 100 0 0
0.56381279 13.65353 0.83840823 100 0 0
-0.76960772 19.087406 -0.65483433 100 0 0
-0.90399235 14.286453 -0.45128244 100 0 0
0.77062565 20.499056 0.65367991 100 0 0
0.94533443 13.449638 0.35689571 100 0 0
-0.9937461 11.881223 -0.18429157 100 0 0
0.61017561 16.126726 -0.80536103 100 0 0
-0.73241031 14.525874 0.69642764 100 0 0
0.83728617 13.159372 0.56546384 100 0 0
-0.93959647 11.428222 0.37271246 100 0 0
0.79413855 14.05417 0.62464368 100 0 0
-0.80794251 20.13887 0.60684764 100 0 0
0.48920804 13.88719 0.88448548 100 0 0
-0.76404113 21.434975 -0.66114843 100 0 0
0.085551083 14.357949 -1.006758 100 0 0
-0.15774795 15.872948 -0.9979502 100 0 0
-0.64260358 13.096202 -0.78020734 100 0 0
0.087557748 13.188212 1.0065682 100 0 0
0.78420037 15.108341 0.63745588 100 0 0
-0.85495144 14.641705 0.53914756 100 0 0
-0.82432544 11.186441 0.58453512 100 0 0
-0.19354226 13.89838 -0.99201196 100 0 0
0.75906909 13.353778 0.66678816 100 0 0
0.94321364 13.527521 0.36278629 100 0 0
0.70022327 20.618208 0.72861481 100 0 0
-0.82874131 18.635473 -0.5780372 100 0 0
0.92660379 17.779989 0.40273684 100 0 0
0.85865414 16.965672 -0.53288651 100 0 0
0.56809109 20.636778 0.83550078 100 0 0
0.99353123 21.420832 -0.18564841 100 0 0
0.60652626 21.886562 -0.80819178 100 0 0
0.9717719 14.729732 -0.27654874 100 0 0
0.68763512 13.450829 -0.74069005 100 0 0
0.38393757 11.352633 0.93473899 100 0 0
1.008607 18.773207 0.06599053 100 0 0
-0.86697888 17.18066 0.51881015 100 0 0
0.84816498 13.188057 -0.54945618 100 0 0
-0.61176556 18.193432 0.80412781 100 0 0
0.69376588 12.423966 0.73507214 100 0 0
-0.43158898 20.855253 0.91402668 100 0 0
-0.71880221 15.334288 0.7100358 100 0 0
-0.74060434 12.110989 0.68773234 100 0 0
-0.0055742483 18.416637 -1.0106646 100 0 0
-0.59926987 12.026096 -0.81382036 100 0 0
-0.40361625 16.768742 -0.92622334 100 0 0
-0.67663097 15.663397 -0.75039142 100 0 0
0.26755786 16.022131 0.97438395 100 0 0
0.96438289 17.871754 0.30198175 100 0 0
-0.78108001 14.837622 0.64147854 100 0 0
-0.63964313 11.120428 0.78250372 100 0 0
-0.44905204 21.768557 0.90512884 100 0 0
-0.12690188 18.658419 -1.0028358 100 0 0
-0.070139386 16.26738 1.0082148 100 0 0
0.96383148 14.296426 0.30387983 100 0 0
0.64341652 12.221368 0.77957678 100 0 0
-0.45499188 19.910131 -0.90210229 100 0 0
0.0094297882 18.923065 1.0105435 100 0 0
0.87822747 20.539715 -0.4997898 100 0 0
-0.8059665 20.174662 -0.60939515 100 0 0
-0.98728144 19.605648 0.21470547 100 0 0
-1.0030581 13.336189 0.12469105 100 0 0
-1.0091004 17.017328 -0.055351622 100 0 0
-1.0091479 12.261705 0.053839862 100 0 0
-0.42802021 20.732727 0.91566277 100 0 0
0.60750991 14.590217 0.80742884 100 0 0
1.0094436 20.342964 0.044428531 100 0 0
-0.42052275 12.574684 0.91890717 100 0 0
0.98154104 11.013584 -0.24038666 100 0 0
-0.4029029 19.968922 0.92653197 100 0 0
-1.00906 12.383425 -0.056632966 100 0 0
0.60008633 17.29649 -0.81318712 100 0 0
-0.15814655 16.349499 -0.99788713 100 0 0
-1.0100425 14.200666 -0.025368331 100 0 0
0.9337067 20.180174 -0.38632312 100 0 0
-0.4903039 21.236439 -0.88383746 100 0 0
-0.77653754 21.67606 0.64697403 100 0 0
-0.22206949 18.585539 -0.9856354 100 0 0
0.67145735 14.146132 -0.75495261 100 0 0
0.73423284 15.50474 -0.69460517 100 0 0
0.54421175 12.015648 0.85172921 100 0 0
0.9636845 20.698513 0.30438587 100 0 0
0.72364581 18.814377 -0.70519221 100 0 0
-0.73248649 11.115305 0.69635153 100 0 0
0.30359116 13.12278 -0.96391535 100 0 0
0.31718722 17.568998 0.95963031 100 0 0
-0.1993553 13.625702 -0.99071252 100 0 0
0.98344404 21.450603 0.23187274 100 0 0
-0.84229785 19.729649 0.55808944 100 0 0
-0.024961524 15.131104 -1.0100553 100 0 0
-0.57060641 11.314888 -0.83379138 100 0 0
-0.83293939 21.949829 -0.57186007 100 0 0
0.91929185 17.938118 0.41963387 100 0 0
-0.93568414 19.762682 -0.38175341 100 0 0
-0.91387266 14.734394 -0.43189132 100 0 0
-0.8942765 18.402784 0.47035095 100 0 0
-0.0044692098 15.404522 1.0106994 100 0 0
0.88929164 18.540564 0.48013413 100 0 0
0.28085148 17.559525 0.97052181 100 0 0
-0.81047684 11.128436 -0.60358042 100 0 0
-0.88873523 16.221603 -0.48122609 100 0 0
-0.62898475 17.387951 -0.79077125 100 0 0
-0.61668545 14.271836 -0.80031157 100 0 0
-0.35814667 20.096443 0.94488406 100 0 0
0.67046016 19.55714 0.75583172 100 0 0
0.92138261 20.413616 0.41480237 100 0 0
0.11653322 12.255293 -1.0038294 100 0 0
-0.77634698 20.343721 -0.64719015 100 0 0
-0.52355832 12.303789 0.86417085 100 0 0
0.24343055 21.785423 -0.98086059 100 0 0
0.60343909 16.25897 -0.81058651 100 0 0
-0.32229716 12.130869 -0.95779055 100 0 0
-0.57764387 21.058174 0.82900876 100 0 0
-0.25870985 11.43322 -0.97695452 100 0 0
0.71626061 15.197507 0.7125774 100 0 0
-0.83309108 19.420021 0.5716368 100 0 0
0.037194721 14.857162 -1.009671 100 0 0
0.70257503 14.066708 -0.72626299 100 0 0
0.36747637 12.20919 -0.94152504 100 0 0
0.97839975 18.208326 -0.25373527 100 0 0
0.90618336 13.677607 0.44698232 100 0 0
0.26770088 16.537859 -0.97434241 100 0 0
-0.1424911 19.233753 -1.0003667 100 0 0
0.92121398 16.26379 -0.41519207 100 0 0
1.0024649 15.215026 -0.12924346 100 0 0
-0.91732192 11.467368 0.42418599 100 0 0
-0.17021155 13.335436 -0.99597615 100 0 0
0.83704555 20.963512 0.56581795 100 0 0
-0.61394012 12.765788 -0.80244106 100 0 0
-0.92117161 11.56348 -0.41528997 100 0 0
-0.97612524 15.591846 0.26156408 100 0 0
0.87669969 12.692928 -0.5023731 100 0 0
-0.91499394 19.955324 -0.42956576 100 0 0
0.91974342 20.614494 0.41859028 100 0 0
-0.25023627 14.710439 -0.9793393 100 0 0
-0.59089351 19.455259 -0.82000434 100 0 0
0.95403439 14.870388 -0.33273047 100 0 0
-0.60943359 19.322168 0.80593669 100 0 0
-1.0105174 14.535269 -0.01026344 100 0 0
-0.20232706 11.312466 -0.99004829 100 0 0
0.17420179 19.51947 -0.99534416 100 0 0
-0.94322866 17.655357 -0.36274469 100 0 0
-0.10913496 17.331688 -1.0045286 100 0 0
-0.5224241 16.091608 -0.86484158 100 0 0
0.9866367 17.229879 0.21758993 100 0 0
1.0080129 17.463245 -0.072277047 100 0 0
0.85786545 16.046635 -0.53422004 100 0 0
-0.91724306 12.121193 -0.42436832 100 0 0
0.4439275 16.103813 -0.90773994 100 0 0
-1.0088704 20.573097 0.062671602 100 0 0
-0.99310333 21.342314 -0.18835035 100 0 0
1.0095563 18.518713 0.040839978 100 0 0
-0.17537886 17.808414 -0.99515778 100 0 0
-0.809484 21.791777 0.60486031 100 0 0
0.99155724 21.821367 -0.19557671 100 0 0
-0.85243511 20.560921 0.54317302 100 0 0
0.58465087 12.655613 0.82424676 100 0 0
0.90311807 18.257179 -0.45299846 100 0 0
0.43231088 19.915863 -0.91365886 100 0 0
-1.0052147 11.896027 0.10187739 100 0 0
-0.99982631 12.537718 0.14590254 100 0 0
0.048721023 17.557875 1.0093087 100 0 0
-0.31108961 21.901419 -0.96173686 100 0 0
-0.95537353 13.652728 0.32901093 100 0 0
19.384123 14.61799 -0.054661281 0 100 0
18.982332 14.776648 2.7660599 0 100 0
5.1247516 13.852361 3.0058413 0 100 0
30.107292 3.0875154 -2.2935145 0 100 0
10.208412 15.513121 2.1659386 0 100 0
7.3115101 14.77338 3.5880709 0 100 0
13.575327 15.751582 -2.8593328 0 100 0
26.448395 9.7275505 -0.30295557 0 100 0
16.762648 15.381144 -3.1814115 0 100 0
30.825151 -1.0869957 0.46516573 0 100 0
28.740486 6.4184923 1.6945559 0 100 0
29.434978 4.9684982 0.15628923 0 100 0
28.063 7.5684776 -0.17921866 0 100 0
24.270689 11.82635 -3.2145953 0 100 0
30.70682 0.22036025 0.59130412 0 100 0
16.322266 15.468317 -1.7542284 0 100 0
16.063231 15.519592 -4.1211119 0 100 0
27.006397 9.0557747 1.5603501 0 100 0
29.783718 4.0997524 0.30249673 0 100 0
14.678711 15.691306 2.7427118 0 100 0
30.610344 0.95786452 -0.76015204 0 100 0
21.798758 13.510446 1.2147455 0 100 0
26.285313 9.9050617 -3.2899301 0 100 0
28.81962 6.2634964 -2.2583473 0 100 0
16.200144 15.492491 -2.7968462 0 100 0
27.949085 7.7492094 0.34962875 0 100 0
13.123618 15.758251 -3.3323352 0 100 0
9.1183567 15.302186 -2.3537707 0 100 0
28.650562 6.594615 -0.67833698 0 100 0
30.446577 1.7613032 -0.85821962 0 100 0
5.5761552 14.06316 3.335588 0 100 0
1.4356995 11.345218 2.2126939 0 100 0
2.1339517 11.94282 -1.0504999 0 100 0
9.6498661 15.419598 1.7899131 0 100 0
22.647163 12.983667 2.0177486 0 100 0
12.278418 15.742224 1.6153867 0 100 0
21.32267 13.750139 1.1421206 0 100 0
24.57089 11.580356 -0.58083957 0 100 0
11.416468 15.676963 2.3819308 0 100 0
30.175411 2.8604033 -0.52428001 0 100 0
13.205669 15.757038 -1.9998721 0 100 0
18.057619 15.057525 -2.1402774 0 100 0
3.3028803 12.786545 0.46213055 0 100 0
30.832026 -2.6707678 -0.39828473 0 100 0
27.265795 8.7164793 1.0458748 0 100 0
12.61943 15.765694 -0.52687007 0 100 0
2.4522474 12.182408 -2.0821683 0 100 0
14.0758 15.744194 2.2606471 0 100 0
30.780525 -0.44245636 -1.310369 0 100 0
24.840786 11.335196 -0.93801558 0 100 0
29.598618 4.5608511 0.74433702 0 100 0
18.612743 14.894433 -4.1729393 0 100 0
30.828712 -1.2614481 0.075197145 0 100 0
3.8018265 13.106331 -0.24049649 0 100 0
24.435268 11.701995 0.44934851 0 100 0
30.816669 -2.8900635 0.010404739 0 100 0
29.934996 3.6619396 0.63949239 0 100 0
24.624643 11.531529 -2.0645697 0 100 0
19.576958 14.541842 -0.69330943 0 100 0
6.4531097 14.463383 -0.30688691 0 100 0
22.788761 12.895534 0.84460396 0 100 0
30.142254 2.9709554 2.517868 0 100 0
3.1367326 12.668543 2.9338284 0 100 0
6.8352242 14.601377 0.92550933 0 100 0
17.769621 15.142138 -3.2925677 0 100 0
18.307806 14.984021 -1.4812204 0 100 0
18.200855 15.015444 -2.454371 0 100 0
2.1980538 11.997683 -1.344221 0 100 0
28.819517 6.2637024 -2.2115562 0 100 0
2.4172392 12.157545 0.3119829 0 100 0
24.906509 11.275497 -3.1487775 0 100 0
30.166073 2.891546 1.8495688 0 100 0
6.1037683 14.309549 1.504325 0 100 0
21.516972 13.652314 0.31770334 0 100 0
30.758947 -4.9173894 -1.4202486 0 100 0
10.948753 15.637081 -0.89933771 0 100 0
23.091785 12.706923 3.3983884 0 100 0
3.8307047 13.123144 -0.16238725 0 100 0
3.3578305 12.825571 -0.23000009 0 100 0
17.109674 15.312449 0.52369344 0 100 0
27.843315 7.9170179 1.985433 0 100 0
30.715744 -6.3980055 0.71720427 0 100 0
21.64262 13.589056 -1.4429923 0 100 0
11.219297 15.662034 0.77756369 0 100 0
15.889357 15.554008 -1.1577476 0 100 0
16.982155 15.337692 2.591573 0 100 0
16.603233 15.4127 -1.9635987 0 100 0
6.3163943 14.408843 -3.4749918 0 100 0
12.380219 15.749931 3.2986455 0 100 0
15.060843 15.650999 2.8508937 0 100 0
18.966206 14.783015 1.743413 0 100 0
10.520118 15.565311 -3.0527353 0 100 0
20.461145 14.183886 -3.3388712 0 100 0
14.394135 15.721324 0.028585816 0 100 0
30.798313 -3.15221 -1.6791923 0 100 0
28.15918 7.4158797 -1.8973182 0 100 0
6.7292967 14.563124 0.65898114 0 100 0
24.048641 11.99413 3.0239778 0 100 0
6.9661436 14.648657 -1.3492674 0 100 0
21.706772 13.556758 0.38385105 0 100 0
30.057184 3.2545745 -2.6856585 0 100 0
28.148581 7.4326978 -0.99245399 0 100 0
4.3520503 13.426666 -3.4887002 0 100 0
1.8272486 11.680327 0.25239158 0 100 0
4.4058824 13.458007 -2.3541307 0 100 0
10.003388 15.47879 0.55014282 0 100 0
27.984982 7.6922531 -1.0879184 0 100 0
7.7807798 14.942851 2.8713436 0 100 0
23.548483 12.372048 0.69995737 0 100 0
4.1039295 13.282211 2.5564625 0 100 0
2.0125546 11.838922 1.3712277 0 100 0
7.3704648 14.794672 -2.5626912 0 100 0
20.715857 14.055647 -1.9103681 0 100 0
22.406767 13.133296 3.4740522 0 100 0
26.4828 9.6901016 -1.6695307 0 100 0
6.3711143 14.433771 3.2885706 0 100 0
18.227612 15.007585 2.8957071 0 100 0
30.742386 -0.099463426 1.3813787 0 100 0
26.530699 9.6379633 2.0191808 0 100 0
4.0165968 13.231369 -1.2830887 0 100 0
17.198511 15.294865 3.2340109 0 100 0
8.483181 15.135778 -1.5794864 0 100 0
24.980326 11.208448 0.0063753445 0 100 0
13.491202 15.752824 -1.9805133 0 100 0
20.917297 13.954229 -3.9102907 0 100 0
9.5060635 15.39552 2.695008 0 100 0
9.659894 15.421276 0.60270137 0 100 0
25.768787 10.467287 -0.20321941 0 100 0
8.2789106 15.082261 -2.1506801 0 100 0
30.689892 0.37258828 -2.0667965 0 100 0
17.560051 15.203708 -1.4902188 0 100 0
22.6562 12.978042 -2.9965985 0 100 0
4.7779322 13.674611 -3.0292721 0 100 0
4.4119539 13.461541 -2.6908331 0 100 0
23.3062 12.555119 -3.3573885 0 100 0
25.830269 10.400366 0.77773017 0 100 0
24.148972 11.918318 2.3933918 0 100 0
6.2295446 14.368285 2.9403844 0 100 0
17.828568 15.124819 0.909208 0 100 0
5.4049721 13.983221 0.34229124 0 100 0
13.49836 15.752718 2.3562355 0 100 0
3.45434 12.894114 -2.321358 0 100 0
18.832602 14.82984 2.304755 0 100 0
4.0994101 13.279581 -0.65766633 0 100 0
20.03043 14.362777 0.8931154 0 100 0
16.579035 15.417489 -1.3130587 0 100 0
30.603718 0.99037945 1.6640832 0 100 0
21.666597 13.576984 1.9258006 0 100 0
8.1468649 15.047666 -3.2434139 0 100 0
23.553141 12.368529 -2.8004849 0 100 0
29.557796 4.6625443 -1.7690279 0 100 0
11.709608 15.699158 -3.4315753 0 100 0
5.4990983 14.027175 -2.4873636 0 100 0
3.1513896 12.678953 -1.2285011 0 100 0
14.552391 15.704631 1.460292 0 100 0
22.667404 12.971067 1.0167329 0 100 0
30.839497 -1.7896287 -1.2143822 0 100 0
26.690331 9.4642096 2.0549941 0 100 0
21.980204 13.3988 -2.1541655 0 100 0
25.585373 10.658857 3.2904582 0 100 0
30.759699 -3.7035415 -0.19670473 0 100 0
29.950218 3.6111896 0.51332831 0 100 0
30.840084 -1.8184566 1.8729155 0 100 0
11.883154 15.712297 3.1912432 0 100 0
30.761948 -5.0643573 0.7284013 0 100 0
24.047382 11.995081 3.2211149 0 100 0
30.715614 0.14128304 -0.067880809 0 100 0
17.844841 15.120039 3.1863749 0 100 0
16.599777 15.413383 3.0149808 0 100 0
9.2808819 15.344767 2.6689293 0 100 0
1.1487937 11.099669 0.63176614 0 100 0
5.2840524 13.926751 2.6050251 0 100 0
23.231693 12.611417 -3.97401 0 100 0
30.696087 0.31686693 -0.35073739 0 100 0
4.920433 13.756946 -1.5420942 0 100 0
27.020426 9.0374241 -2.8186965 0 100 0
4.1946254 13.335015 1.3508251 0 100 0
7.442874 14.820822 -3.0724959 0 100 0
17.59063 15.194724 2.7204545 0 100 0
6.4673772 14.468535 -3.0343606 0 100 0
30.350933 2.2305379 2.7208018 0 100 0
20.434889 14.197104 -3.9721262 0 100 0
9.5816364 15.408174 2.3916228 0 100 0
10.461638 15.55552 0.16167375 0 100 0
22.367804 13.157547 -3.2837963 0 100 0
22.54797 13.045407 -0.1533141 0 100 0
29.166687 5.5837421 -1.5756598 0 100 0
10.9736 15.641242 -0.87015152 0 100 0
21.929409 13.430414 0.50296044 0 100 0
16.202084 15.492105 -0.81364948 0 100 0
13.811445 15.748096 -3.3192019 0 100 0
13.557379 15.751848 0.64554691 0 100 0
12.320018 15.745373 -0.88584882 0 100 0
6.0419044 14.28066 3.2444909 0 100 0
7.9613981 14.999076 2.7393816 0 100 0
18.359459 14.968847 3.8183846 0 100 0
21.750219 13.534883 -3.7699094 0 100 0
13.630089 15.750773 -3.0583045 0 100 0
11.641818 15.694025 2.4645956 0 100 0
30.225697 2.6927614 2.2002959 0 100 0
11.401813 15.675854 1.7005578 0 100 0
21.34956 13.736601 0.99852717 0 100 0
28.279802 7.2245097 -3.3281546 0 100 0
22.348785 13.169385 0.46470639 0 100 0
30.618391 0.91838425 -1.0725102 0 100 0
29.773933 4.124126 -0.34299403 0 100 0
4.1178331 13.290308 -3.2904916 0 100 0
28.925339 6.0564423 -1.1183413 0 100 0
4.679141 13.617096 -3.4335103 0 100 0
18.182219 15.02092 1.8474255 0 100 0
30.772076 -5.5604682 0.80870491 0 100 0
24.644079 11.513874 -2.6860011 0 100 0
30.339888 2.284729 1.8097154 0 100 0
1.9284111 11.766908 -3.4096293 0 100 0
10.451948 15.553897 -1.2777638 0 100 0
5.4695373 14.013371 1.857523 0 100 0
10.885733 15.626529 0.053580187 0 100 0
16.082888 15.5157 -2.8311765 0 100 0
27.821243 7.9520369 2.4990847 0 100 0
30.768713 -5.3957167 0.94800192 0 100 0
18.857821 14.822432 -2.4943452 0 100 0
16.352468 15.462337 -4.0827088 0 100 0
8.3620424 15.10404 -2.9678292 0 100 0
5.4784627 14.017539 -2.6759243 0 100 0
13.044477 15.759418 -2.5980706 0 100 0
30.815147 -2.911788 -0.057104092 0 100 0
20.400557 14.214389 2.4920435 0 100 0
22.212229 13.25438 -2.3259256 0 100 0
13.246357 15.756439 1.121199 0 100 0
5.2791834 13.924479 1.6600882 0 100 0
30.368967 2.1420667 -2.2527094 0 100 0
29.626263 4.4919863 -1.8033928 0 100 0
20.970871 13.927256 1.3130865 0 100 0
27.349966 8.6063833 0.5515154 0 100 0
1.2565793 11.191916 2.9512634 0 100 0
13.140337 15.758004 -2.5216439 0 100 0
16.117424 15.508865 2.0610516 0 100 0
15.843187 15.563148 -0.12666237 0 100 0
2.1943448 11.994507 1.6511114 0 100 0
19.439777 14.596014 -1.334069 0 100 0
5.4315948 13.995652 -0.83378601 0 100 0
30.753035 -3.7987704 -1.302129 0 100 0
25.191849 11.016314 0.81687009 0 100 0
4.8265491 13.702915 -1.4331526 0 100 0
12.444818 15.754822 -1.4479765 0 100 0
18.59944 14.898341 1.3057094 0 100 0
28.253548 7.26616 3.0996144 0 100 0
18.016577 15.069584 3.5551095 0 100 0
30.429405 1.845561 1.2156665 0 100 0
29.981571 3.5066671 -0.026044065 0 100 0
13.765623 15.748772 -3.0238602 0 100 0
26.528061 9.6408358 2.9409697 0 100 0
18.367901 14.966366 -1.0325705 0 100 0
25.92725 10.294804 -2.4995017 0 100 0
22.722477 12.93679 3.771986 0 100 0
17.377853 15.257237 3.3870041 0 100 0
10.174503 15.507442 -3.2092633 0 100 0
20.029053 14.363321 -1.314173 0 100 0
27.134809 8.8878117 -2.5051568 0 100 0
11.871973 15.711451 2.416518 0 100 0
13.1972 15.757164 2.106621 0 100 0
26.503284 9.6678038 1.503988 0 100 0
10.836987 15.618368 3.1476855 0 100 0
21.132607 13.845829 -2.5887399 0 100 0
9.7633896 15.438606 -1.2277812 0 100 0
18.380661 14.962617 -0.88854676 0 100 0
16.358585 15.461127 2.8090577 0 100 0
22.278214 13.21331 1.3831108 0 100 0
13.110108 15.75845 0.40181765 0 100 0
25.728394 10.511252 -2.2512126 0 100 0
3.7895803 13.099202 2.5632727 0 100 0
26.26572 9.9263878 2.6273313 0 100 0
18.182613 15.020802 2.5672519 0 100 0
1.7090307 11.579149 -3.2215433 0 100 0
18.355053 14.97014 2.7563405 0 100 0
2.6139793 12.297274 2.6607194 0 100 0
13.273859 15.756032 -0.55180126 0 100 0
30.827423 -1.1983031 -1.5462737 0 100 0
18.832409 14.829896 -2.4306767 0 100 0
26.094866 10.112358 -2.3181243 0 100 0
21.824097 13.495964 -0.011118471 0 100 0
15.396659 15.615577 -1.4656125 0 100 0
27.866081 7.8808985 0.65594691 0 100 0
10.835718 15.618156 -2.4635086 0 100 0
18.249334 15.0012 0.94620657 0 100 0
30.829882 -1.3187355 1.8322663 0 100 0
9.5007658 15.394633 -0.21913686 0 100 0
19.690716 14.496922 1.872795 0 100 0
9.7307978 15.433148 -1.5237166 0 100 0
6.2021384 14.355487 3.0357666 0 100 0
21.33902 13.741907 2.2323174 0 100 0
28.286901 7.2132454 -0.99417096 0 100 0
18.158165 15.027985 2.6609721 0 100 0
30.75316 -0.19635618 0.93779683 0 100 0
26.18594 10.013228 -3.0867705 0 100 0
30.851181 -2.3618934 0.86156487 0 100 0
7.8532887 14.969037 -0.80127841 0 100 0
25.653887 10.592353 1.1962649 0 100 0
6.9639082 14.64785 -0.67533869 0 100 0
29.69878 4.3113394 -2.1952157 0 100 0
17.348183 15.265237 0.80804211 0 100 0
2.0755241 11.892815 -0.031053567 0 100 0
12.408489 15.752071 2.2634442 0 100 0
27.588581 8.2942715 2.4896834 0 100 0
14.60284 15.699309 2.9589996 0 100 0
24.88249 11.297314 -2.0491626 0 100 0
23.455725 12.442136 -3.1405025 0 100 0
22.422581 13.123454 2.9784577 0 100 0
21.38463 13.718945 -1.6357795 0 100 0
29.785887 4.0943484 2.5387359 0 100 0
10.662499 15.589151 -3.4277251 0 100 0
11.008557 15.646078 -0.94487536 0 100 0
11.835562 15.708694 -3.145587 0 100 0
2.4902549 12.209402 -0.4487752 0 100 0
28.882164 6.1410074 -2.7799671 0 100 0
30.737492 -6.0874763 -0.012262337 0 100 0
22.036144 13.36398 4.0361257 0 100 0
29.139725 5.6365461 -2.0631859 0 100 0
5.7113314 14.126286 -1.946838 0 100 0
28.761526 6.3772864 -2.884372 0 100 0
30.827522 -1.2031292 1.7340177 0 100 0
6.8193302 14.595637 -0.46384931 0 100 0
6.0332327 14.276609 -1.9842719 0 100 0
14.453606 15.715052 -1.9657516 0 100 0
27.113924 8.9151278 -0.48115519 0 100 0
30.840336 -1.8307019 1.7950814 0 100 0
30.758419 -5.7886267 -0.81926131 0 100 0
1.6375908 11.518007 -1.0889766 0 100 0
26.401354 9.7787533 0.66706389 0 100 0
9.2739277 15.342944 -1.1746191 0 100 0
14.433457 15.717176 2.1267102 0 100 0
23.147446 12.672278 0.73902655 0 100 0
30.483719 1.5790877 -1.0995696 0 100 0
21.777813 13.52099 2.622191 0 100 0
13.059071 15.759204 -2.7952323 0 100 0
22.387955 13.145005 -1.9712534 0 100 0
30.737684 -0.057190448 -0.91346872 0 100 0
30.834396 -2.6369298 1.7518909 0 100 0
14.349645 15.726017 -2.2493203 0 100 0
21.149122 13.837513 2.572262 0 100 0
17.767733 15.142692 -0.00175859 0 100 0
9.0404835 15.281784 1.5736398 0 100 0
8.8727922 15.23785 -2.2456758 0 100 0
25.522758 10.715731 -3.1400883 0 100 0
22.784458 12.898211 2.6871367 0 100 0
29.646389 4.4418516 -3.0587831 0 100 0
15.382184 15.617104 0.64345253 0 100 0
27.777334 8.0216999 -3.4043934 0 100 0
29.380112 5.1051812 0.70395011 0 100 0
26.310263 9.8779049 0.81390071 0 100 0
6.7378702 14.566219 -0.43921745 0 100 0
6.380228 14.437063 -2.1121736 0 100 0
30.027826 3.352453 -1.1366458 0 100 0
15.500048 15.604671 2.6618083 0 100 0
2.2453465 12.035463 -3.1400783 0 100 0
23.094765 12.70507 1.1183976 0 100 0
30.763491 -3.6494358 -0.42530957 0 100 0
6.8608131 14.610619 -1.8967313 0 100 0
6.6064534 14.518761 2.1333518 0 100 0
26.961172 9.1149292 -0.92783517 0 100 0
30.766001 -3.6135707 1.1033568 0 100 0
12.603037 15.765936 -2.702112 0 100 0
11.468287 15.680885 1.2775214 0 100 0
28.706276 6.4854994 2.1822841 0 100 0
16.470213 15.43903 2.1206372 0 100 0
16.67271 15.398947 -0.37876803 0 100 0
13.298239 15.755672 -3.3892956 0 100 0
3.7058172 13.050436 2.2009685 0 100 0
27.212442 8.7862635 -1.2017034 0 100 0
20.042765 14.357904 2.4324009 0 100 0
1.7307063 11.597701 -0.16238509 0 100 0
24.80463 11.368038 -2.0798159 0 100 0
23.2495 12.59796 3.7347124 0 100 0
6.5655828 14.504001 2.7430935 0 100 0
30.794384 -0.56708181 -1.7453358 0 100 0
17.849949 15.118537 -4.0134192 0 100 0
22.517807 13.064182 -2.1908622 0 100 0
24.492737 11.651342 3.7372017 0 100 0
20.068453 14.347761 1.600266 0 100 0
30.526333 1.3700325 -2.5211139 0 100 0
21.548065 13.636662 3.091347 0 100 0
23.990086 12.038372 1.0760145 0 100 0
10.232561 15.517163 2.8944798 0 100 0
13.763683 15.7488 0.25360674 0 100 0
7.1732664 14.723457 0.76189035 0 100 0
29.927912 3.6855562 -2.533072 0 100 0
30.830292 -2.6955576 -1.0527631 0 100 0
17.556993 15.204606 1.5517967 0 100 0
19.650183 14.512928 -2.7085114 0 100 0
9.8879452 15.459462 -1.7810454 0 100 0
16.822582 15.36928 1.8405523 0 100 0
1.3815805 11.298901 -2.103781 0 100 0
12.889417 15.761707 -0.093429342 0 100 0
22.976431 12.778723 2.2033281 0 100 0
26.162916 10.038288 -0.88339895 0 100 0
30.804918 -3.0578554 -0.37355745 0 100 0
29.220028 5.4792624 1.5916449 0 100 0
22.114397 13.315273 -3.6190643 0 100 0
12.47813 15.757345 1.9842412 0 100 0
27.330355 8.6320333 -2.361639 0 100 0
15.262981 15.629678 -1.3339772 0 100 0
7.0693545 14.68593 -2.0668976 0 100 0
29.408741 5.0338573 -0.72068614 0 100 0
30.847385 -2.1760385 -0.52004939 0 100 0
26.247795 9.9458981 2.7482276 0 100 0
2.0361903 11.85915 1.7784534 0 100 0
14.916842 15.666189 0.19104226 0 100 0
9.5691662 15.406086 2.92309 0 100 0
16.220539 15.488453 -0.24890919 0 100 0
10.527309 15.566516 -1.3948052 0 100 0
27.519505 8.3846235 -2.7155609 0 100 0
16.230766 15.486427 -1.3329824 0 100 0
29.687096 4.3404436 -1.2635231 0 100 0
12.833042 15.762541 0.63406861 0 100 0
7.6933064 14.911261 0.074693516 0 100 0
22.480635 13.087319 -1.7453316 0 100 0
13.991696 15.745436 -2.4304073 0 100 0
17.830812 15.124159 -1.5856569 0 100 0
13.685685 15.749953 -1.4733148 0 100 0
20.185642 14.301487 -3.7573855 0 100 0
6.8236423 14.597195 -2.1020846 0 100 0
27.683769 8.1697626 2.1404674 0 100 0
9.6731787 15.423501 3.0416808 0 100 0
30.726875 -6.2390738 -0.12787853 0 100 0
21.288376 13.767405 0.22841519 0 100 0
21.825172 13.495294 -0.60453343 0 100 0
1.6240896 11.506453 0.280451 0 100 0
27.335062 8.6258793 1.7706927 0 100 0
11.243082 15.663836 0.39085102 0 100 0
30.750435 -0.17187427 1.6166871 0 100 0
17.009769 15.332226 3.730793 0 100 0
3.0331678 12.59499 2.570899 0 100 0
2.8973804 12.49855 2.3260131 0 100 0
9.7742643 15.440426 -2.2106078 0 100 0
19.461735 14.587341 0.42854655 0 100 0
22.242426 13.235584 -3.2379105 0 100 0
19.806492 14.451205 2.0790567 0 100 0
23.8095 12.174828 3.0101185 0 100 0
8.5679665 15.15799 2.306428 0 100 0
24.384878 11.740068 0.69630843 0 100 0
4.7120929 13.636279 2.6339483 0 100 0
15.076218 15.649378 3.4370065 0 100 0
29.18779 5.542408 -1.827034 0 100 0
8.8612804 15.234835 2.2717164 0 100 0
30.820335 -0.85114384 0.2457989 0 100 0
6.9087138 14.627916 -1.4691679 0 100 0
17.200569 15.294456 -1.2999319 0 100 0
30.750599 -3.8335092 -0.46888176 0 100 0
12.157331 15.733056 1.1167382 0 100 0
26.290657 9.8992443 -2.4080908 0 100 0
24.083378 11.967883 1.869724 0 100 0
11.025728 15.647379 0.54494989 0 100 0
16.919514 15.350092 -0.82872772 0 100 0
7.7877297 14.945362 3.0469306 0 100 0
26.455576 9.7197351 -0.89871657 0 100 0
18.501875 14.927004 -3.7657104 0 100 0
30.786358 -3.3229237 -1.2701694 0 100 0
13.559536 15.751814 -0.38778517 0 100 0
9.1407518 15.308054 -0.2584179 0 100 0
30.56168 1.1966118 1.5288451 0 100 0
16.15757 15.500917 -0.449038 0 100 0
1.7128636 11.58243 2.8684769 0 100 0
30.773943 -0.38325366 0.33451021 0 100 0
6.0536885 14.286163 0.69496733 0 100 0
30.161489 2.9068153 0.45616806 0 100 0
24.663059 11.496634 -0.37344262 0 100 0
30.74066 -4.0217857 0.25785989 0 100 0
17.898497 15.104274 -1.0031759 0 100 0
22.609238 13.007272 0.56163001 0 100 0
24.700821 11.462332 1.7020478 0 100 0
12.28528 15.742743 1.0551894 0 100 0
22.145226 13.296086 3.4062231 0 100 0
30.811682 -0.72262686 -0.40908051 0 100 0
3.4180853 12.868366 0.49370778 0 100 0
11.62242 15.692556 -1.7639008 0 100 0
18.532129 14.918117 2.5989976 0 100 0
28.687181 6.5228949 1.3991238 0 100 0
25.750225 10.487493 -3.6929228 0 100 0
4.5209126 13.524977 -2.3958797 0 100 0
12.584708 15.765414 -2.9208789 0 100 0
30.847687 -2.1907439 -1.2201149 0 100 0
27.06004 8.98561 2.1686597 0 100 0
30.739319 -0.071880251 -0.90809786 0 100 0
30.017624 3.3864677 -2.1095569 0 100 0
28.006117 7.6587214 0.10743529 0 100 0
13.542084 15.752071 2.2319629 0 100 0
30.84272 -2.5180554 -1.06914 0 100 0
24.569714 11.581426 -0.90087181 0 100 0
25.142506 11.061134 -3.7320986 0 100 0
8.8125687 15.222074 -0.28357556 0 100 0
7.3290448 14.779713 -2.5779171 0 100 0
30.827103 -1.1825321 0.30627736 0 100 0
22.074883 13.33987 0.19026305 0 100 0
30.754429 -3.7788463 0.16823645 0 100 0
11.608939 15.691536 -2.8308704 0 100 0
15.758789 15.577379 -3.157084 0 100 0
29.681923 4.3533301 -3.1135566 0 100 0
26.220749 9.975338 2.5073094 0 100 0
16.093153 15.513668 1.4151838 0 100 0
19.467583 14.585033 -4.0149269 0 100 0
22.64303 12.986238 2.4550347 0 100 0
1.9123974 11.753201 1.8364369 0 100 0
16.943253 15.345392 -1.6380457 0 100 0
23.00659 12.759952 3.2343173 0 100 0
26.077806 10.130927 -0.75815529 0 100 0
30.837214 -1.6777517 -0.66010606 0 100 0
29.565624 4.6430507 -0.77707499 0 100 0
6.323988 14.41239 -1.8375528 0 100 0
20.885489 13.970243 3.4660525 0 100 0
7.6792507 14.906185 -2.7048693 0 100 0
10.02564 15.482516 2.7450819 0 100 0
28.421223 7.0001369 -0.91560358 0 100 0
17.368919 15.259861 -1.6788993 0 100 0
6.0558472 14.28717 0.26316878 0 100 0
27.980259 7.699749 1.0395461 0 100 0
4.1959629 13.335794 0.41355315 0 100 0
17.512838 15.217579 1.3665586 0 100 0
28.084015 7.5351362 3.4243159 0 100 0
27.410133 8.5276823 -1.3172234 0 100 0
30.816631 -0.76714826 2.3252406 0 100 0
23.451851 12.445065 -1.1515186 0 100 0
30.274647 2.5295634 2.803961 0 100 0
27.046461 9.0033722 -1.1608732 0 100 0
26.267191 9.9247866 0.63064921 0 100 0
28.359272 7.0984259 2.1763504 0 100 0
9.4260826 15.382128 2.3651552 0 100 0
17.689312 15.165732 -3.6872535 0 100 0
8.543355 15.151543 -1.3531024 0 100 0
8.5288334 15.147738 0.67646563 0 100 0
30.520916 1.3965873 2.2686191 0 100 0
27.293247 8.6805725 1.6447183 0 100 0
13.157588 15.757749 -1.8980322 0 100 0
25.23914 10.973354 -0.10849368 0 100 0
5.1538782 13.865962 -0.94221973 0 100 0
14.267845 15.734645 -3.3695362 0 100 0
30.763584 -5.1445484 -1.1929702 0 100 0
30.805363 -3.0514982 1.4724164 0 100 0
6.2632642 14.384031 0.57866549 0 100 0
24.264288 11.831185 -3.7363904 0 100 0
30.71052 0.1870954 -1.4641845 0 100 0
8.7790518 15.213291 2.1151476 0 100 0
28.739084 6.4212418 -2.4178047 0 100 0
16.413824 15.450192 -3.5172539 0 100 0
18.812241 14.835823 -0.82723343 0 100 0
3.4940054 12.922286 -2.6667225 0 100 0
1.2885807 11.219306 -0.0951133 0 100 0
17.126623 15.309094 -0.87468541 0 100 0
24.660189 11.499242 0.92941487 0 100 0
22.276356 13.214467 2.2039874 0 100 0
30.153261 2.9342582 1.5899711 0 100 0
19.302261 14.650316 -3.2925622 0 100 0
30.761036 -5.0196929 -0.2806327 0 100 0
10.92531 15.633156 2.6320667 0 100 0
1.8699189 11.716846 -2.0294516 0 100 0
30.826975 -1.1763116 1.1545624 0 100 0
29.951191 3.6079481 -1.6871539 0 100 0
30.844866 -2.0525856 0.49847269 0 100 0
25.660648 10.584993 2.856159 0 100 0
11.181856 15.6592 -1.2181077 0 100 0
30.248142 2.6179328 2.5888188 0 100 0
18.136879 15.034239 -3.2415829 0 100 0
26.386492 9.7949305 -0.13676848 0 100 0
30.400423 1.9877384 2.3761516 0 100 0
28.297791 7.1959705 -1.340886 0 100 0
15.205294 15.635762 0.83817965 0 100 0
2.3784366 12.129987 -2.3857937 0 100 0
29.169275 5.5786734 -1.2804327 0 100 0
22.188213 13.269329 0.92305058 0 100 0
21.451399 13.685328 2.2088699 0 100 0
11.265253 15.665514 1.6775436 0 100 0
27.059305 8.9865675 -2.6360946 0 100 0
3.3784521 12.840217 1.4547464 0 100 0
5.2643404 13.917547 -1.4630785 0 100 0
11.38404 15.674507 -0.65758252 0 100 0
30.838732 -1.7521507 0.29651541 0 100 0
9.1650152 15.31441 1.4397695 0 100 0
3.0056715 12.57546 2.847532 0 100 0
30.516722 1.4171798 -1.1371082 0 100 0
15.182838 15.63813 -0.3071228 0 100 0
30.758701 -4.905333 0.77823508 0 100 0
27.238064 8.7527533 -2.6959331 0 100 0
1.1345873 11.087511 2.3682725 0 100 0
30.136356 2.9906149 -0.69489968 0 100 0
19.599253 14.533039 -2.3403814 0 100 0
30.809692 -0.7047345 -0.010926122 0 100 0
3.7306128 13.064871 0.74711382 0 100 0
30.32703 2.3478007 -1.1606969 0 100 0
9.4532156 15.386671 -0.94957352 0 100 0
29.489185 4.8334661 -0.85997331 0 100 0
30.835209 -1.579682 -1.9176757 0 100 0
19.045601 14.751665 -1.1294713 0 100 0
29.433147 4.9730573 -0.36325404 0 100 0
26.710825 9.4419003 -3.3277218 0 100 0
30.846752 -2.460484 1.2362403 0 100 0
18.735895 14.858252 -2.0147424 0 100 0
18.852909 14.823874 -1.3752527 0 100 0
1.6472557 11.526279 0.34959474 0 100 0
30.72735 -6.2323132 -0.71075517 0 100 0
30.77907 -0.42937639 -1.4212666 0 100 0
15.105192 15.64632 -0.14539547 0 100 0
22.804359 12.885823 -0.75160164 0 100 0
11.829989 15.708271 -1.0462466 0 100 0
22.666842 12.971418 -3.1977086 0 100 0
21.702871 13.558722 2.1619344 0 100 0
19.45064 14.591722 -3.261821 0 100 0
12.742373 15.76388 1.1870975 0 100 0
