ply
format ascii 1.0
comment PCL generated
element vertex 1205
property float x
property float y
property float z
property uchar red
property uchar green
property uchar blue
element camera 0
property float view_px
property float view_py
property float view_pz
property float x_axisx
property float x_axisy
property float x_axisz
property float y_axisx
property float y_axisy
property float y_axisz
property float z_axisx
property float z_axisy
property float z_axisz
property float focal
property float scalex
property float scaley
property float centerx
property float centery
property int viewportx
property int viewporty
property float k1
property float k2
end_header
1.8699473 24.456856 0.28078553 100 0 0
-1.7652425 20.567699 0.6788938 100 0 0
-1.7753432 18.706974 0.65083778 100 0 0
0.48409706 30.758402 1.8283896 100 0 0
1.4028047 20.806416 1.2680709 100 0 0
-0.39668107 30.893925 1.8488426 100 0 0
0.086571932 28.41217 1.8890625 100 0 0
1.8324982 16.052248 0.46980208 100 0 0
1.5242751 30.5798 -1.1199679 100 0 0
1.8841543 27.759701 -0.1599995 100 0 0
-0.55358726 26.914282 1.8082008 100 0 0
1.4816768 27.207344 -1.174885 100 0 0
-1.6803582 21.187302 -0.86706567 100 0 0
1.526701 24.926571 -1.1168404 100 0 0
1.5981959 26.853302 1.0121285 100 0 0
0.28745747 22.831043 -1.8688908 100 0 0
0.60962188 23.645969 -1.7901819 100 0 0
1.8911034 22.910465 -0.021631826 100 0 0
1.8888401 24.472961 -0.093653761 100 0 0
-0.64410043 26.19075 1.7777689 100 0 0
-0.63954383 16.560387 -1.7794092 100 0 0
0.64189625 18.163921 1.7785623 100 0 0
-1.8609984 27.726879 0.33728817 100 0 0
-1.3491515 21.491262 1.324914 100 0 0
-0.16840422 23.592754 1.8833599 100 0 0
0.46159518 19.218988 1.8343326 100 0 0
-0.18614841 17.318611 -1.8816826 100 0 0
-1.7028469 25.294474 0.82292932 100 0 0
0.85823405 16.331621 1.6848582 100 0 0
1.5661428 22.829027 -1.0594931 100 0 0
-0.64344025 29.988766 1.7780066 100 0 0
-1.6520847 27.523184 0.92100769 100 0 0
-0.83875179 18.733339 -1.6947849 100 0 0
-1.887498 22.777821 -0.12462689 100 0 0
1.2025687 30.658794 1.4602033 100 0 0
-0.59070557 18.215853 -1.7969921 100 0 0
-1.8041894 27.544216 0.56739426 100 0 0
-1.0641357 26.858023 -1.5629878 100 0 0
-1.1720012 16.109467 1.4839138 100 0 0
-1.7258148 30.566952 0.77294952 100 0 0
1.5386627 21.334383 -1.0999291 100 0 0
1.8130324 17.039936 0.53695703 100 0 0
0.072593905 31.158749 -1.8895018 100 0 0
-1.4415528 24.880238 -1.2241199 100 0 0
-1.8788528 23.012695 -0.21608359 100 0 0
-1.7977961 28.948589 -0.58847272 100 0 0
-1.8882546 23.877886 0.11227836 100 0 0
1.2590556 27.552076 1.4107528 100 0 0
-1.8869379 23.686838 0.1305525 100 0 0
-1.8500741 27.061539 -0.39117181 100 0 0
-1.6553591 30.590809 -0.91547102 100 0 0
-0.93526101 27.908121 1.6436553 100 0 0
1.8815287 16.027391 -0.18777573 100 0 0
1.8831151 26.160686 -0.17099369 100 0 0
-0.23498017 19.284492 -1.8770666 100 0 0
-1.8653522 29.675129 0.30979908 100 0 0
-1.7574558 29.327291 0.69983137 100 0 0
-1.0289547 29.667332 1.5868967 100 0 0
-1.3074317 23.619898 -1.3666335 100 0 0
-1.8259439 16.684044 0.49251524 100 0 0
-0.22910848 22.726662 -1.8776218 100 0 0
0.24648392 29.432261 -1.8753804 100 0 0
1.8849868 20.226362 -0.15119436 100 0 0
1.8273538 29.09034 0.48766261 100 0 0
-1.8666787 16.13765 0.3014234 100 0 0
-1.5561734 23.187788 1.0741627 100 0 0
-1.8391654 26.447311 -0.43997413 100 0 0
-0.87465405 21.186222 1.6764917 100 0 0
-1.7327352 17.885443 0.75695753 100 0 0
0.64984596 25.52672 1.7757003 100 0 0
1.7287053 30.508846 0.76626992 100 0 0
1.7345028 29.511784 -0.75287247 100 0 0
1.1586379 17.749851 -1.4942794 100 0 0
-1.7037094 21.906761 -0.82123667 100 0 0
-0.36291653 15.78139 -1.8563898 100 0 0
0.41457736 18.331005 -1.8448422 100 0 0
-1.0201775 29.716377 1.5928617 100 0 0
1.3761219 19.485706 -1.2979436 100 0 0
-1.8614306 27.127398 -0.3345589 100 0 0
0.27098584 26.581139 -1.8714995 100 0 0
1.0563954 22.999149 1.568248 100 0 0
-0.13809374 28.766186 1.8862251 100 0 0
-1.7547333 26.959839 0.70612258 100 0 0
-1.0577332 26.552692 -1.5673388 100 0 0
1.5675728 23.787205 -1.057389 100 0 0
1.6431568 31.049448 -0.93610394 100 0 0
0.82952964 16.786936 1.6994839 100 0 0
1.4952524 22.378736 1.1573838 100 0 0
1.775084 28.647278 0.65155792 100 0 0
-0.96103418 19.063267 -1.6284131 100 0 0
-1.3273029 19.278862 1.3467624 100 0 0
1.6651766 25.801098 -0.89686143 100 0 0
1.6904228 27.745773 0.84731269 100 0 0
0.90642935 29.389736 -1.6603014 100 0 0
0.24255046 26.48974 1.8760033 100 0 0
-0.108294 21.233101 -1.8883801 100 0 0
0.33547074 30.959812 -1.8612862 100 0 0
1.2295613 27.614304 -1.4367554 100 0 0
-1.0210203 28.962336 1.592289 100 0 0
-1.2698543 18.249863 -1.4012326 100 0 0
1.712111 29.68648 -0.80461729 100 0 0
-0.70973003 28.569574 1.7531723 100 0 0
-0.38473722 18.30464 -1.8515124 100 0 0
1.8758893 31.024805 -0.24326892 100 0 0
-0.60221499 16.189653 -1.7928485 100 0 0
-1.7600648 28.873693 -0.69327521 100 0 0
-1.2143755 21.927483 1.4501436 100 0 0
-1.7618747 24.093491 0.68824792 100 0 0
-0.78422731 15.63257 -1.7209344 100 0 0
-1.5215617 23.632036 -1.1234658 100 0 0
1.8765676 20.708183 -0.23898703 100 0 0
1.8486295 30.776245 -0.39763543 100 0 0
1.0641296 18.014271 -1.5629919 100 0 0
1.844583 18.028942 0.41573763 100 0 0
0.64243138 21.819046 1.7783697 100 0 0
0.15097095 28.094044 1.8850077 100 0 0
1.699331 28.727875 0.82982969 100 0 0
1.4468613 23.244383 -1.2180986 100 0 0
0.26242462 25.620068 -1.8728554 100 0 0
0.38277519 17.566938 -1.8519509 100 0 0
-1.5937607 21.019238 -1.0188545 100 0 0
-1.7177505 26.328781 -0.79158473 100 0 0
-1.2559789 18.024286 -1.4134654 100 0 0
1.2846049 24.156693 -1.3882282 100 0 0
1.5738323 15.683351 1.0481784 100 0 0
-1.8055999 19.495533 -0.56253976 100 0 0
1.8567449 18.071867 -0.36132804 100 0 0
1.247237 23.456301 1.4211724 100 0 0
1.707113 26.475922 -0.81455672 100 0 0
-0.82845628 25.126808 -1.7000307 100 0 0
1.8819751 24.581896 0.18305486 100 0 0
1.4322245 29.141308 -1.2347008 100 0 0
-1.5337272 20.14645 -1.1071913 100 0 0
1.1753941 23.146385 -1.481282 100 0 0
-1.0724987 21.520327 -1.5573043 100 0 0
-0.92174995 28.840935 -1.6516458 100 0 0
-1.834044 19.361752 0.46288654 100 0 0
-1.5209452 17.987911 1.1242609 100 0 0
1.600186 17.474514 -1.0087636 100 0 0
-0.65317297 18.825081 -1.7745025 100 0 0
-0.9884274 26.001554 1.6122128 100 0 0
0.75920427 27.343544 -1.731763 100 0 0
1.516687 27.053152 1.1297504 100 0 0
1.829393 15.619716 0.48064333 100 0 0
-1.0818745 19.970299 -1.5509324 100 0 0
1.1607015 20.912695 1.4926788 100 0 0
-0.15582871 28.881235 -1.8845487 100 0 0
-1.8662192 20.735275 -0.30432478 100 0 0
-1.503459 20.578022 1.1468037 100 0 0
1.4581671 24.211109 1.2051935 100 0 0
-1.8214761 21.743387 0.50789326 100 0 0
1.8617731 30.457443 0.3323957 100 0 0
-1.4839247 25.950861 1.1719872 100 0 0
0.62684411 20.766121 1.7839816 100 0 0
-0.41293377 15.619905 1.8452097 100 0 0
0.09168186 29.453094 -1.8889019 100 0 0
0.8538121 16.695364 1.6871114 100 0 0
-1.8893728 26.857382 0.076699205 100 0 0
1.2421658 19.837219 -1.4256432 100 0 0
0.63828266 29.382463 1.7798635 100 0 0
0.73542196 20.364996 1.7420545 100 0 0
0.98125732 19.483553 -1.6164532 100 0 0
1.8670065 27.786022 0.29935306 100 0 0
-1.321424 18.957321 1.3526413 100 0 0
-0.25489211 17.952776 -1.8740486 100 0 0
-0.29250887 30.908936 -1.8680906 100 0 0
1.795687 18.215858 0.59433067 100 0 0
0.926319 21.69363 1.6489435 100 0 0
-1.8439746 26.657272 0.41845995 100 0 0
1.2943734 20.149586 -1.3796161 100 0 0
1.7343068 16.402567 0.75332534 100 0 0
-1.4143976 28.757019 1.2549214 100 0 0
-1.0949786 23.576031 -1.542027 100 0 0
1.8613298 17.835686 -0.33519509 100 0 0
-1.3516934 26.735607 1.322372 100 0 0
-1.8698399 28.332813 -0.28146416 100 0 0
-1.742254 29.235384 -0.73496038 100 0 0
0.32318699 21.632914 1.8632317 100 0 0
1.8553116 29.083076 0.36774054 100 0 0
-1.3632005 29.442677 1.3108647 100 0 0
-1.2809786 31.075562 1.3914251 100 0 0
-1.8202561 24.387093 0.51209283 100 0 0
-0.90276724 30.013939 -1.6621675 100 0 0
-1.6579199 17.607347 0.91110361 100 0 0
1.4805187 23.168814 -1.1763781 100 0 0
-1.2045951 26.203676 1.4586313 100 0 0
-1.625717 26.99436 -0.96559298 100 0 0
-0.0043021874 22.905941 -1.8916481 100 0 0
-1.0123899 22.965645 1.5980413 100 0 0
0.34174696 28.823065 1.860292 100 0 0
-1.5374465 21.241676 -1.1017188 100 0 0
-1.227304 30.13842 -1.4387455 100 0 0
0.7512123 17.917603 1.7352213 100 0 0
-0.025604628 27.871387 1.8909785 100 0 0
0.13499725 28.314552 1.8865179 100 0 0
1.0663512 24.961567 -1.5614821 100 0 0
0.69268596 25.471951 -1.760277 100 0 0
0.93798488 25.228592 1.6420444 100 0 0
1.4713209 29.908981 1.1882359 100 0 0
1.6236446 21.167429 0.9690972 100 0 0
1.8561471 24.598164 -0.36400273 100 0 0
0.88998294 22.092968 -1.6686815 100 0 0
1.8139439 27.852491 0.53381968 100 0 0
-0.32155475 29.026033 1.8634902 100 0 0
-1.8908417 19.024595 0.029962352 100 0 0
1.7515869 17.854439 0.71339327 100 0 0
-1.8649974 28.502077 -0.31203896 100 0 0
-1.7601656 20.413898 0.69299549 100 0 0
1.8327675 29.891003 0.46859676 100 0 0
-1.0148367 30.423779 1.5964913 100 0 0
-0.26777375 19.995167 -1.8720083 100 0 0
-1.7267574 30.530516 -0.77077138 100 0 0
-0.68620181 28.120827 1.7626114 100 0 0
-1.25559 22.690636 -1.4138083 100 0 0
1.8385961 20.583342 -0.44252074 100 0 0
0.66730213 19.340731 1.7694157 100 0 0
-0.89378327 17.916084 -1.6667449 100 0 0
1.889962 30.526226 -0.057954568 100 0 0
1.5666547 30.648056 -1.0587399 100 0 0
-0.022085086 17.703102 -1.8910891 100 0 0
-0.19708946 16.783375 -1.8806484 100 0 0
-1.8392069 30.526224 0.43978909 100 0 0
-1.6568458 23.825764 -0.91295719 100 0 0
-0.19901305 17.699177 1.8804665 100 0 0
0.25166109 26.672556 -1.8745604 100 0 0
-1.0415436 22.245617 1.5783412 100 0 0
0.89004314 16.979263 -1.6686506 100 0 0
1.8809968 22.71122 0.19340464 100 0 0
1.5721264 25.898294 1.0506886 100 0 0
0.93533963 28.185396 1.6436088 100 0 0
-0.64232767 28.265865 1.7784071 100 0 0
-1.8892574 26.026329 0.080367461 100 0 0
-1.8122762 27.434103 -0.53955972 100 0 0
-1.8780437 27.014202 -0.22464509 100 0 0
-0.76112354 30.986828 -1.7309324 100 0 0
-1.834336 29.908745 -0.46157923 100 0 0
1.2184558 26.363823 1.4465463 100 0 0
1.8873434 21.32288 0.12626232 100 0 0
-1.4592252 26.89184 -1.2038296 100 0 0
1.8386977 26.73978 -0.44206664 100 0 0
-1.6306487 19.186008 0.95725381 100 0 0
-0.66994482 17.247671 -1.7684643 100 0 0
-1.2886981 20.525867 1.3846196 100 0 0
-0.0061550546 28.524792 -1.8915898 100 0 0
-1.8417325 19.351742 0.42848969 100 0 0
-1.8832238 20.903154 0.16984476 100 0 0
1.8892181 17.814648 0.08162488 100 0 0
-0.69764096 18.561886 -1.7584037 100 0 0
-1.8248212 27.243324 -0.49637976 100 0 0
-1.8580837 26.327513 0.35533893 100 0 0
0.40940258 20.32221 1.8459991 100 0 0
-1.8908523 27.326132 -0.029621912 100 0 0
0.77766997 22.786215 -1.723772 100 0 0
-0.31354773 24.821564 -1.8647584 100 0 0
-1.8827147 28.495241 0.17522924 100 0 0
1.4149618 24.550756 -1.2542813 100 0 0
-0.14731474 26.932913 1.8853534 100 0 0
-1.7371225 30.582994 0.7468189 100 0 0
-1.7026607 15.767246 0.82329458 100 0 0
-0.80072194 24.172802 1.7137966 100 0 0
-0.5688712 30.569357 1.8037604 100 0 0
-0.95636421 18.15313 -1.6311748 100 0 0
1.6178188 23.42494 -0.97894812 100 0 0
-1.6145861 20.160858 -0.98441452 100 0 0
0.41251493 27.998608 1.8453033 100 0 0
-1.8825157 19.869064 0.17733657 100 0 0
1.6708789 22.04607 -0.88567019 100 0 0
-0.89489585 16.32778 -1.6661781 100 0 0
0.037492398 20.314457 -1.890605 100 0 0
0.15692639 16.92317 -1.884445 100 0 0
-0.88665789 28.600208 -1.6703756 100 0 0
1.5189865 26.551441 -1.1267858 100 0 0
1.2975482 23.161118 1.3765173 100 0 0
-0.35039338 28.167599 -1.8589225 100 0 0
-1.7295061 20.632374 0.76441932 100 0 0
-0.35319775 16.596891 -1.8584784 100 0 0
1.6653618 28.897488 0.89649796 100 0 0
-1.8889973 21.600681 0.088648908 100 0 0
-1.0416039 17.069992 -1.5783004 100 0 0
1.4610376 17.182859 1.2014929 100 0 0
-0.75889754 30.596539 1.7318957 100 0 0
-1.8883146 23.267296 0.11037321 100 0 0
1.1293114 27.249516 1.5170274 100 0 0
1.5913246 24.874969 1.0224394 100 0 0
1.7945942 16.685057 0.59736645 100 0 0
-1.8841588 18.839962 -0.15995184 100 0 0
-1.2645569 28.98946 1.4059027 100 0 0
1.3706232 19.31604 -1.303442 100 0 0
-1.8794357 16.642914 0.20991759 100 0 0
-1.5745412 26.020563 -1.0471352 100 0 0
-1.823048 29.681831 -0.50248289 100 0 0
-1.3019415 26.004488 -1.372124 100 0 0
-1.8915526 17.100904 -0.0073413649 100 0 0
1.6076027 17.725624 0.9962225 100 0 0
1.8025461 16.529169 -0.57305068 100 0 0
-0.92395091 23.179779 1.6503439 100 0 0
-0.58002514 30.082041 -1.8005198 100 0 0
1.8915476 26.600388 -0.007499266 100 0 0
1.395807 24.812878 -1.2760082 100 0 0
1.4616603 28.559917 1.2006905 100 0 0
-1.7849605 16.560919 0.62412471 100 0 0
-1.7621088 17.847149 -0.68759817 100 0 0
-1.2118007 24.032398 1.4524136 100 0 0
1.858705 23.608284 -0.35176703 100 0 0
1.4152977 16.258255 1.2539003 100 0 0
0.35144573 16.543362 1.8587559 100 0 0
1.8787308 25.208851 0.21737526 100 0 0
-1.6433761 20.500381 -0.9357329 100 0 0
-1.5938904 21.81118 1.0186638 100 0 0
1.1990944 23.261135 1.4628983 100 0 0
1.4875251 25.783741 -1.1673455 100 0 0
1.880031 19.956724 -0.20362058 100 0 0
1.468372 29.237352 -1.1920377 100 0 0
0.45196331 18.199606 -1.8364855 100 0 0
-0.055343036 23.888294 -1.8900441 100 0 0
0.76088256 24.971413 -1.7310365 100 0 0
-1.8648953 17.963627 -0.31268227 100 0 0
0.3574436 28.11327 1.8576132 100 0 0
0.42029312 25.434334 -1.8435647 100 0 0
-0.53969783 29.617332 -1.8122361 100 0 0
-1.6232424 18.814703 -0.96977752 100 0 0
1.8239958 18.893637 -0.49922067 100 0 0
-1.7989557 18.022186 0.58525151 100 0 0
-1.7094766 31.061069 -0.80991781 100 0 0
-1.6351711 30.267658 0.9496069 100 0 0
1.6388606 26.608829 -0.94336843 100 0 0
-1.6055964 27.794067 0.99961483 100 0 0
-1.5190061 25.490849 -1.1267604 100 0 0
-1.8794262 28.916119 0.21001907 100 0 0
1.7942269 27.474308 -0.59838641 100 0 0
1.6396818 30.561296 0.94197989 100 0 0
-1.1646973 25.973289 1.4895793 100 0 0
-0.59707391 19.852993 1.7946995 100 0 0
-0.5653218 22.033186 1.8047917 100 0 0
-0.6783222 27.564529 1.7654483 100 0 0
-1.7742217 17.280546 0.65395308 100 0 0
1.6810967 25.857706 -0.86561668 100 0 0
0.34042615 25.647337 -1.8605013 100 0 0
-1.6620667 19.024536 -0.90296495 100 0 0
-0.14225331 20.40976 -1.8858318 100 0 0
-1.4833956 28.206345 1.1726694 100 0 0
-1.7904544 25.396463 0.60886544 100 0 0
1.3873682 17.134352 -1.2855804 100 0 0
-1.5921946 27.859421 -1.0211589 100 0 0
-1.280629 23.371143 1.3917334 100 0 0
1.8164014 23.114393 -0.52536088 100 0 0
0.81422627 28.306452 1.7072814 100 0 0
-1.7706231 27.244678 -0.66394854 100 0 0
-0.6104511 25.193398 1.7898834 100 0 0
0.46310183 30.046055 1.8339958 100 0 0
1.8814962 28.388245 -0.18812016 100 0 0
0.35927778 26.064182 1.8572032 100 0 0
1.1043355 24.521534 -1.5356679 100 0 0
-0.83390909 29.893194 1.6972524 100 0 0
0.097031087 21.206793 1.888734 100 0 0
1.8910582 25.157959 -0.023072759 100 0 0
-1.8786693 27.505033 -0.21802655 100 0 0
0.53255332 27.56352 1.8143117 100 0 0
-0.87764174 22.650013 -1.6749696 100 0 0
-1.5218112 28.389021 1.1231443 100 0 0
-0.98157692 31.110561 1.6162641 100 0 0
-1.7171379 18.295204 -0.7930007 100 0 0
-1.8298855 29.267672 0.47894832 100 0 0
-0.58835196 28.199938 1.7978395 100 0 0
-1.5819826 24.093605 1.0361855 100 0 0
1.7334878 27.683176 0.75521839 100 0 0
-0.14118752 18.179453 -1.8859327 100 0 0
-0.87177825 23.544699 1.6779571 100 0 0
-1.3117365 30.052498 -1.3623288 100 0 0
0.54745227 28.900753 1.8099833 100 0 0
0.75500453 16.291735 -1.7335804 100 0 0
0.83628201 28.57053 -1.6960434 100 0 0
-0.57490122 22.493263 -1.8020085 100 0 0
-0.9066897 30.63689 1.6601688 100 0 0
-0.46825898 19.403803 1.8328429 100 0 0
1.8114076 19.823294 -0.54254961 100 0 0
-0.40086254 23.272692 1.8479078 100 0 0
-1.8174546 20.523752 0.52173603 100 0 0
1.8796157 20.732285 0.20801581 100 0 0
-0.38373119 30.474762 1.8517373 100 0 0
-1.8389471 25.732454 0.44095156 100 0 0
-1.8009746 15.651727 -0.57846004 100 0 0
-0.21418802 20.940243 -1.8790321 100 0 0
1.4073303 25.260368 -1.2629379 100 0 0
-0.82740438 30.767817 1.7005668 100 0 0
-0.63183957 22.226231 1.7821831 100 0 0
0.67460012 23.904852 -1.7667882 100 0 0
-1.2733947 19.277815 1.3981112 100 0 0
0.97198963 25.069702 1.6219342 100 0 0
1.5165486 21.268524 -1.1299286 100 0 0
1.8315732 24.225969 -0.47313887 100 0 0
-0.82775605 18.328979 -1.7003876 100 0 0
-1.3520324 25.75975 -1.322033 100 0 0
-0.1274289 18.377668 1.8872333 100 0 0
1.4703597 30.68189 -1.1894752 100 0 0
1.6875553 27.916992 -0.85294068 100 0 0
-1.7066402 20.339794 0.8154847 100 0 0
1.2107753 24.037315 1.4533176 100 0 0
-1.2970382 20.091539 1.3770272 100 0 0
0.27708474 17.256201 -1.8705335 100 0 0
-1.832057 23.468601 -0.47147381 100 0 0
-1.8899179 19.575426 0.059356842 100 0 0
-1.7752987 25.263374 0.65096164 100 0 0
1.4228237 26.968204 1.245364 100 0 0
0.87291539 22.997303 -1.6773777 100 0 0
1.2254055 28.893522 -1.4404194 100 0 0
0.7721355 21.062134 1.726167 100 0 0
1.7402148 17.887497 0.73967278 100 0 0
1.8060077 28.596083 -0.56113601 100 0 0
1.3781629 25.285418 -1.2959025 100 0 0
1.3957692 22.312428 1.276051 100 0 0
1.2320073 30.335564 1.4345992 100 0 0
-1.8703325 18.271265 0.27835476 100 0 0
1.2374383 21.689762 -1.429811 100 0 0
0.6711908 25.378397 1.7680159 100 0 0
0.36798152 28.261293 -1.8552577 100 0 0
1.777387 21.293997 -0.64516103 100 0 0
-1.8644477 29.376108 0.31550977 100 0 0
-0.074620001 28.335741 -1.8894383 100 0 0
1.6083853 30.166992 -0.99489927 100 0 0
1.4894083 21.453171 -1.1649177 100 0 0
-1.4164479 27.329876 -1.2525959 100 0 0
0.34591693 28.885225 -1.8596315 100 0 0
1.8837967 30.424423 -0.16378269 100 0 0
-1.8812076 21.589638 -0.19117303 100 0 0
0.025966011 27.444389 1.8909672 100 0 0
1.3722637 22.425198 1.3018017 100 0 0
-1.7265373 18.784197 -0.77128017 100 0 0
-0.45957294 17.550438 -1.8347845 100 0 0
1.7554438 26.730316 -0.70448095 100 0 0
1.8833334 16.620443 0.16868405 100 0 0
-1.863943 23.099392 0.31869584 100 0 0
0.76180768 23.121851 -1.7306362 100 0 0
-1.8816282 25.710783 0.18672562 100 0 0
-1.5545779 27.64024 -1.0765103 100 0 0
1.8851409 30.316973 -0.14956328 100 0 0
-1.8883932 17.190483 -0.10787003 100 0 0
-1.1655827 16.728163 1.4888926 100 0 0
-1.6103867 16.441015 -0.99151504 100 0 0
1.1064224 28.343775 1.5342495 100 0 0
1.7886407 21.750809 -0.61390305 100 0 0
1.6284654 16.245268 0.96094561 100 0 0
-0.64243543 28.673126 -1.7783682 100 0 0
-0.19104794 21.461372 1.8812194 100 0 0
-1.2585018 30.847282 -1.4112411 100 0 0
1.8590201 22.085217 0.34977764 100 0 0
0.48216072 16.55736 1.8289522 100 0 0
1.4818463 25.049013 1.1746664 100 0 0
0.33626917 28.321936 1.8611596 100 0 0
-0.3753061 30.130142 1.8536205 100 0 0
0.28179926 20.224581 1.8697869 100 0 0
1.659988 17.636351 -0.90704447 100 0 0
1.8914106 17.803371 0.01185838 100 0 0
0.15975316 22.655069 1.8841777 100 0 0
-1.4028862 29.711098 -1.2679787 100 0 0
-1.1065609 20.398008 -1.5341556 100 0 0
-1.5952603 30.14933 -1.0166484 100 0 0
-1.815945 24.952385 -0.52693152 100 0 0
1.6207365 25.192598 0.9740144 100 0 0
1.7030233 25.050236 -0.82258308 100 0 0
1.8881919 27.24472 0.11427879 100 0 0
-0.94797802 16.313633 1.6361344 100 0 0
-1.347068 30.833553 1.3269975 100 0 0
1.8508441 19.46027 -0.38772658 100 0 0
-1.6846005 30.327576 -0.85873997 100 0 0
0.69923943 27.758413 -1.757712 100 0 0
-0.98975545 15.740173 -1.6114273 100 0 0
-1.2452592 18.044712 -1.4229159 100 0 0
1.6898685 21.054832 0.84840083 100 0 0
-1.6997814 20.245831 -0.82894564 100 0 0
-0.41664502 18.107773 1.8443801 100 0 0
1.1465088 30.766857 1.5036876 100 0 0
-0.12865005 28.050804 1.8871179 100 0 0
-0.80363154 17.37907 1.7125375 100 0 0
-1.6662967 26.042431 -0.89466268 100 0 0
-0.87256742 30.916222 -1.6775551 100 0 0
-1.1146313 18.029608 -1.5284146 100 0 0
-0.78414267 18.146606 -1.7209711 100 0 0
1.5457631 15.716613 -1.089481 100 0 0
-1.8642135 25.30814 -0.31698841 100 0 0
1.0557069 15.982221 -1.5687159 100 0 0
1.6590602 27.886168 0.90886521 100 0 0
1.1324224 17.269285 1.5146143 100 0 0
1.8149819 27.904205 0.53024673 100 0 0
1.8746418 30.173498 0.25114641 100 0 0
-0.48928821 26.511333 -1.8268814 100 0 0
-0.22677881 26.009573 -1.8778418 100 0 0
-0.50344926 16.507055 -1.8227673 100 0 0
1.0429612 20.380087 1.5773779 100 0 0
0.75416189 28.933548 1.7339449 100 0 0
-0.14553538 15.707861 -1.8855215 100 0 0
0.46656984 20.300823 -1.8332207 100 0 0
-0.75361121 29.597618 -1.7341831 100 0 0
0.67616796 24.868771 -1.7662239 100 0 0
1.4487329 22.559067 1.2159758 100 0 0
0.76991594 22.661957 1.7271276 100 0 0
0.81344169 31.023041 -1.7076811 100 0 0
-0.42806977 16.407001 -1.8418264 100 0 0
-1.8552392 30.88142 0.36806458 100 0 0
0.94036961 21.406153 1.6406339 100 0 0
-1.3547306 30.80237 1.3193347 100 0 0
-1.4375559 26.451059 1.2286534 100 0 0
-1.0797991 17.454901 1.5523429 100 0 0
-1.8887028 19.778009 -0.098022334 100 0 0
0.63229334 24.707458 1.7820197 100 0 0
1.8883598 25.628868 -0.10893685 100 0 0
-1.7024703 31.040205 -0.82366854 100 0 0
-1.6071236 18.20067 -0.9970327 100 0 0
-0.45517325 24.831951 -1.835768 100 0 0
1.2052314 21.943624 -1.4581378 100 0 0
-1.8031373 15.751747 -0.57101625 100 0 0
-1.3517545 22.511581 -1.3223108 100 0 0
0.91392946 23.818783 1.6562707 100 0 0
-0.7235949 29.464119 1.7471724 100 0 0
1.343026 20.416655 1.3310393 100 0 0
-1.3853873 20.877182 -1.2878271 100 0 0
-1.888798 18.512812 -0.094988167 100 0 0
-1.8824791 17.522011 -0.17772193 100 0 0
-1.1370847 24.226313 1.5109979 100 0 0
0.97481036 26.742599 1.6202657 100 0 0
1.0479572 28.444366 1.5739827 100 0 0
1.8060392 21.804926 0.56102747 100 0 0
-1.3495287 21.005907 -1.3245367 100 0 0
-1.6948391 24.720898 -0.83864558 100 0 0
-0.57928091 27.740702 -1.8007362 100 0 0
1.3602918 22.364841 1.3137735 100 0 0
1.8846688 25.915852 0.15455604 100 0 0
0.56251097 21.122982 1.8056083 100 0 0
-1.5369295 18.104897 1.1024795 100 0 0
1.6676891 19.270498 0.8919301 100 0 0
-1.4870605 22.72263 1.1679444 100 0 0
-0.24904051 19.776035 -1.8749753 100 0 0
-1.8612821 17.206577 0.33549654 100 0 0
1.843996 28.788177 -0.41836339 100 0 0
-0.26760489 17.9473 -1.872035 100 0 0
1.7219143 25.02013 -0.78196317 100 0 0
-1.586818 25.817989 -1.0290707 100 0 0
-0.40229553 19.713814 1.8475876 100 0 0
-1.6664312 29.986061 -0.89439905 100 0 0
0.53533345 24.606823 1.813504 100 0 0
1.88534 23.793922 0.14745799 100 0 0
-1.8018256 16.685934 -0.57553017 100 0 0
-1.6605068 24.601849 0.90602642 100 0 0
0.73754883 19.90909 -1.7411342 100 0 0
1.8640649 22.947338 0.31792647 100 0 0
0.58887923 18.081553 1.7976497 100 0 0
1.7449006 29.233454 -0.72884488 100 0 0
-0.10061815 27.988052 -1.8886212 100 0 0
1.2840645 22.477966 1.3887045 100 0 0
-1.8301374 26.980764 0.47808117 100 0 0
1.3987978 16.643307 -1.272616 100 0 0
-1.7347881 27.144211 -0.75221354 100 0 0
-1.759654 25.666157 -0.69441628 100 0 0
-1.8718052 26.507019 0.26905566 100 0 0
1.5370877 22.570404 -1.1022465 100 0 0
-1.8504603 15.824226 -0.38944352 100 0 0
-1.8874531 25.694891 0.12510273 100 0 0
0.3567526 25.41456 -1.8577678 100 0 0
-1.3633161 21.047447 -1.3107492 100 0 0
-1.5586019 23.241991 1.0705895 100 0 0
0.53303093 24.559389 1.8141731 100 0 0
-1.6532328 22.762157 0.91906631 100 0 0
0.14669921 26.038244 -1.8854116 100 0 0
-0.39439636 27.425203 -1.8493533 100 0 0
0.048832208 16.769596 1.8902487 100 0 0
1.7968397 30.983763 0.59112942 100 0 0
1.4648035 22.560482 1.196638 100 0 0
1.8668008 20.929646 -0.30065227 100 0 0
1.7638073 15.897373 -0.68287992 100 0 0
-1.566749 27.414951 -1.0586011 100 0 0
1.2585435 19.199009 1.4112043 100 0 0
-1.6589184 15.647632 -0.90914381 100 0 0
-1.783041 29.977043 0.62945646 100 0 0
0.71052861 22.031582 1.7528267 100 0 0
-1.5068008 18.673658 -1.1424955 100 0 0
-0.44186285 18.960958 -1.8387432 100 0 0
-0.27402139 30.968021 -1.8710188 100 0 0
-1.6695849 28.901115 -0.8882097 100 0 0
1.8907791 18.178551 0.031951044 100 0 0
1.1889144 24.788578 1.4707946 100 0 0
-1.8071826 20.61718 0.55709207 100 0 0
0.76195937 20.922268 -1.7305707 100 0 0
0.4805665 20.838482 -1.8294153 100 0 0
1.826019 26.329185 -0.49225593 100 0 0
0.29255033 26.818932 -1.8680842 100 0 0
1.0293651 17.597862 1.5866177 100 0 0
-1.3413566 15.770849 -1.3327087 100 0 0
-1.004813 26.671085 -1.6025224 100 0 0
1.7477701 24.296333 0.72221363 100 0 0
-1.7741106 29.997126 0.65426183 100 0 0
0.46252352 17.573004 1.834125 100 0 0
-1.7171062 25.542143 -0.79307377 100 0 0
1.6876402 27.901203 -0.85277379 100 0 0
1.7285979 16.325422 0.76651818 100 0 0
-0.75216109 21.017302 -1.7348107 100 0 0
1.865463 25.686949 0.30909863 100 0 0
0.94135624 19.576002 1.6400506 100 0 0
0.71710229 26.145329 1.7499821 100 0 0
1.6578162 24.239586 0.91130686 100 0 0
0.4038583 22.490522 -1.8472383 100 0 0
1.4270461 25.772429 -1.2405745 100 0 0
-1.8516821 27.41066 -0.38397804 100 0 0
-0.57998866 28.448624 1.8005306 100 0 0
-1.3238109 20.811441 -1.3502544 100 0 0
-0.71814114 25.729166 -1.7495326 100 0 0
1.4959174 16.330585 1.1565263 100 0 0
-1.6409886 16.445431 -0.93976986 100 0 0
1.1026508 17.677143 -1.5368129 100 0 0
-1.871779 21.114557 0.26922163 100 0 0
-1.8766239 27.413126 0.23863252 100 0 0
1.8852692 28.530352 -0.14820527 100 0 0
-1.8172916 25.828096 0.52229702 100 0 0
-0.55916709 22.141579 -1.8065798 100 0 0
-1.8823724 20.870754 -0.17885162 100 0 0
1.1259723 15.846909 -1.5196176 100 0 0
-1.8861815 18.81004 0.13855462 100 0 0
-1.6667495 24.662052 -0.89377433 100 0 0
-0.10140738 24.281811 -1.8885964 100 0 0
-1.112636 29.204721 -1.5299622 100 0 0
-1.1033862 21.061638 1.5363132 100 0 0
-0.55954623 22.967018 1.8064696 100 0 0
-0.58206993 26.234678 -1.7999258 100 0 0
1.2799875 22.816484 1.3922989 100 0 0
-1.887203 30.932869 -0.12774847 100 0 0
1.6576719 28.407927 -0.91156018 100 0 0
1.8845575 30.418159 0.15573619 100 0 0
1.0401887 26.688246 -1.5792619 100 0 0
-1.7734256 29.508354 -0.65616441 100 0 0
-1.1679509 18.095392 1.4870555 100 0 0
-0.56673843 26.241579 1.8043802 100 0 0
0.89598596 29.500305 1.6656226 100 0 0
1.4209416 31.101439 -1.2474988 100 0 0
1.8052375 26.542606 -0.56378686 100 0 0
-0.71883154 22.617834 -1.7492337 100 0 0
-0.4985283 22.434343 -1.8241968 100 0 0
-0.62091422 17.484331 -1.7861164 100 0 0
0.20411742 18.217134 -1.879984 100 0 0
-1.8878918 23.890041 0.12046082 100 0 0
-0.42003497 25.358864 -1.8436223 100 0 0
1.6776702 29.114807 -0.87234104 100 0 0
-1.5625031 28.736134 -1.0648487 100 0 0
-0.38881212 15.859278 -1.8506014 100 0 0
-0.34874979 26.55541 -1.8591831 100 0 0
-0.97222722 20.923599 1.6217936 100 0 0
1.7533207 20.212463 0.70938689 100 0 0
0.043201808 30.333313 -1.8904257 100 0 0
1.6337301 19.390678 -0.95204353 100 0 0
1.5606663 30.771534 1.0675514 100 0 0
1.7396282 29.243793 0.74102855 100 0 0
-1.8501606 24.161343 0.39078486 100 0 0
-1.1299435 18.45532 -1.5165372 100 0 0
1.4438802 25.764355 -1.2214799 100 0 0
1.6377149 16.7465 -0.94530559 100 0 0
1.0763983 29.574423 -1.554654 100 0 0
0.42721617 15.897348 1.8420172 100 0 0
1.6972101 25.568113 -0.833992 100 0 0
1.89141 24.907177 0.011876363 100 0 0
-0.51503915 21.48513 1.8194001 100 0 0
-1.0630186 30.16835 1.5637469 100 0 0
-1.8688644 23.251705 -0.28762367 100 0 0
1.441484 19.491476 1.224198 100 0 0
-0.53788126 28.760109 1.8127639 100 0 0
1.8369064 22.797962 -0.45008084 100 0 0
1.7415664 21.519192 0.73654991 100 0 0
-0.3986426 18.846901 1.8484042 100 0 0
-0.91417849 25.291248 1.6561234 100 0 0
1.5744911 26.438595 -1.047209 100 0 0
0.15695728 16.057102 -1.8844419 100 0 0
-1.4725741 26.132088 1.1866202 100 0 0
-1.8882043 23.977068 -0.11388219 100 0 0
1.8351707 27.022892 0.45784557 100 0 0
-1.6311097 25.58037 -0.95647454 100 0 0
1.2071656 30.004713 -1.4565002 100 0 0
-1.6287766 25.189041 -0.96041948 100 0 0
1.5755579 30.302063 1.045639 100 0 0
-1.8089395 24.196083 0.55104488 100 0 0
-1.5696892 29.164059 1.0542749 100 0 0
1.3248051 29.881697 -1.3492601 100 0 0
1.8387843 17.57584 -0.44167936 100 0 0
-0.15089659 16.650639 -1.8850149 100 0 0
-1.1160216 19.83456 -1.5273361 100 0 0
-1.1990789 31.060335 1.4629102 100 0 0
0.0098187989 25.294258 -1.8914747 100 0 0
-0.17169733 26.546289 -1.8830487 100 0 0
1.0042866 24.7206 1.6028336 100 0 0
0.1223909 30.248571 1.8877094 100 0 0
1.4932513 20.050573 -1.1599634 100 0 0
1.2827073 26.677155 1.3899012 100 0 0
0.031363409 21.739389 1.8907976 100 0 0
-1.6063113 31.031641 -0.99840617 100 0 0
-0.88102698 21.624937 -1.6732446 100 0 0
-1.384442 30.271198 -1.2888997 100 0 0
-0.39520001 28.631413 -1.8491735 100 0 0
1.7198578 24.256187 -0.78671557 100 0 0
-0.95455307 18.482651 1.632246 100 0 0
0.61304808 29.510281 1.7889483 100 0 0
1.2190371 20.884186 -1.446034 100 0 0
0.2361871 20.514957 1.8769526 100 0 0
1.7458483 28.017967 0.72665495 100 0 0
0.16843498 17.168957 -1.883357 100 0 0
0.89646012 21.305256 -1.665381 100 0 0
-0.5612846 15.713428 1.8059646 100 0 0
0.090242058 26.842075 -1.8889472 100 0 0
1.7115054 22.159737 0.80593592 100 0 0
1.012282 30.812689 -1.5981052 100 0 0
1.1644144 22.684002 1.4897988 100 0 0
-1.7255155 27.097944 0.77364141 100 0 0
1.2685665 29.009047 1.4023678 100 0 0
1.4140799 19.446417 1.2552818 100 0 0
-1.003636 16.136814 1.6032184 100 0 0
-1.8606319 29.648602 -0.33960068 100 0 0
-1.0604532 21.734213 1.5654902 100 0 0
1.1148832 31.076731 1.5282192 100 0 0
-0.78956276 28.339191 -1.7186255 100 0 0
-0.70145047 27.195131 -1.7567551 100 0 0
-0.81273037 30.518656 1.7080433 100 0 0
0.94807649 30.043171 -1.6360762 100 0 0
1.4847593 27.442513 1.1709111 100 0 0
-0.25217625 21.592197 1.8744786 100 0 0
-1.6644428 18.054848 -0.89830148 100 0 0
-1.3880098 23.013603 -1.2848525 100 0 0
1.7896783 15.848076 0.61102068 100 0 0
-1.8914016 30.239656 -0.012144851 100 0 0
-0.64938796 16.617813 -1.7758653 100 0 0
-1.8506804 30.67963 -0.3884593 100 0 0
-1.4243473 30.495829 1.2436359 100 0 0
-1.7238941 21.23317 0.77738816 100 0 0
-1.8474659 17.312149 -0.40284047 100 0 0
1.6619577 29.909933 -0.90317863 100 0 0
-0.910438 20.995316 -1.6582589 100 0 0
-1.8109415 22.674931 -0.54415393 100 0 0
-1.2595516 23.830471 1.4103155 100 0 0
-1.7205954 20.447716 0.78501081 100 0 0
-1.8900745 26.671141 0.054375377 100 0 0
-1.2930372 17.416052 -1.380794 100 0 0
-0.83736616 23.473335 -1.6954908 100 0 0
0.19647963 29.513006 -1.8807061 100 0 0
-1.1150265 27.851233 1.5281079 100 0 0
-1.7570384 28.431063 -0.70079589 100 0 0
-1.888522 28.995758 -0.10377271 100 0 0
-1.8730427 23.679813 -0.26124236 100 0 0
1.2963446 25.262169 1.3777206 100 0 0
-0.84732103 17.919437 -1.6904187 100 0 0
-0.53843069 30.05065 1.8126042 100 0 0
-0.73245704 17.196821 -1.7433374 100 0 0
-1.8679428 23.077137 -0.29344076 100 0 0
1.1801469 17.396847 1.4775953 100 0 0
-1.4052701 24.320402 1.2652745 100 0 0
-1.0193461 22.252846 1.5934267 100 0 0
-0.56607974 20.425785 1.8045715 100 0 0
0.81912148 24.140818 -1.7047871 100 0 0
-1.8385584 30.635159 -0.44268936 100 0 0
-1.8903698 27.17326 0.044973575 100 0 0
0.50154257 30.27364 1.8233213 100 0 0
-1.2303183 21.505163 1.4360881 100 0 0
-1.8905723 21.418726 0.038535491 100 0 0
1.8901795 24.296234 -0.051032048 100 0 0
-0.5201354 21.614357 1.8179195 100 0 0
1.651913 29.823174 -0.92129791 100 0 0
0.55984235 21.174204 -1.8063836 100 0 0
-1.4894629 23.080204 -1.1648475 100 0 0
1.4814291 20.069416 -1.1752045 100 0 0
1.8605518 16.519688 0.34010696 100 0 0
-1.7097085 19.025305 0.80946255 100 0 0
-1.5114247 20.139587 -1.1365345 100 0 0
0.76846093 24.340483 1.7277572 100 0 0
1.0257742 27.752926 -1.5890582 100 0 0
-1.1468173 21.083206 1.5034484 100 0 0
1.7760594 25.697136 0.64884889 100 0 0
-1.8516482 25.593866 -0.38412958 100 0 0
-0.36474013 21.103165 1.8559822 100 0 0
0.83006465 22.634882 -1.6992112 100 0 0
-0.50327557 22.967825 1.8228177 100 0 0
-1.1952366 18.573879 1.4658905 100 0 0
-0.67264044 26.771503 1.7674937 100 0 0
1.0076143 28.257826 -1.6008657 100 0 0
-1.831498 24.314583 0.47339788 100 0 0
-0.84707075 16.667267 1.6905463 100 0 0
0.71429503 27.047523 -1.7511969 100 0 0
-0.17991763 15.698707 1.8822716 100 0 0
1.87349 18.478462 -0.25841948 100 0 0
0.33119404 27.87344 -1.8619635 100 0 0
0.55902457 16.586313 1.8066211 100 0 0
-0.052378602 26.805943 -1.8901372 100 0 0
-1.3459511 16.621254 -1.3281143 100 0 0
0.6335997 16.379847 1.7815492 100 0 0
1.8280663 18.283697 -0.48520967 100 0 0
1.5305866 27.564598 -1.1118127 100 0 0
-0.82332641 17.399584 1.7026447 100 0 0
1.2112238 20.89175 1.4529223 100 0 0
1.1064322 26.182386 1.5342431 100 0 0
1.8622578 25.871857 -0.32933435 100 0 0
-1.887028 20.923723 0.12959981 100 0 0
-0.30524638 26.159697 -1.8660731 100 0 0
1.4084225 30.192936 1.261699 100 0 0
-0.091608211 19.188974 1.8889043 100 0 0
-1.0165416 18.295546 1.5953325 100 0 0
0.50198793 29.642014 1.8231918 100 0 0
0.5348013 17.076992 1.8136587 100 0 0
-1.5282888 18.806112 1.1147932 100 0 0
-0.74210775 20.37479 1.7391611 100 0 0
0.14881611 23.514393 1.8852115 100 0 0
1.8889337 15.99334 -0.090674974 100 0 0
1.2576129 28.60693 -1.4120247 100 0 0
0.287844 30.507502 1.8688295 100 0 0
-1.3698004 17.050894 1.3042648 100 0 0
1.1356148 16.25943 1.5121381 100 0 0
1.8915737 21.969383 -0.0066670314 100 0 0
-0.16836798 16.275419 1.8833632 100 0 0
-0.05595047 21.455643 -1.8900249 100 0 0
-0.47949421 21.314825 -1.8297267 100 0 0
1.3242497 28.480854 1.3498156 100 0 0
0.42514753 29.001305 -1.8424796 100 0 0
1.4536886 21.94113 -1.2103543 100 0 0
0.92490578 26.476603 1.6497794 100 0 0
-0.14786367 25.863008 1.8853017 100 0 0
-1.1365703 29.867592 1.5113966 100 0 0
-1.6130457 24.382765 0.98701894 100 0 0
-0.83765256 21.100498 1.6953449 100 0 0
-1.6404214 22.848316 0.94072926 100 0 0
0.99758852 17.796585 -1.6067948 100 0 0
-0.34069741 28.046421 -1.8604583 100 0 0
1.7626398 29.12112 0.68612278 100 0 0
-0.76914811 30.07411 1.7274598 100 0 0
0.11732643 30.947329 1.8880961 100 0 0
1.7253845 28.919819 -0.77394366 100 0 0
-0.98184168 20.31501 -1.6161076 100 0 0
0.21545307 18.706877 -1.8789124 100 0 0
-1.8097136 18.677912 0.54838026 100 0 0
1.67624 23.781464 -0.87514824 100 0 0
-1.6863351 21.422464 -0.85533541 100 0 0
-0.3627784 19.540466 -1.8564208 100 0 0
-1.6038183 20.645489 -1.0026217 100 0 0
0.82282817 25.262617 1.7028985 100 0 0
-1.1184548 18.165554 1.5254488 100 0 0
-1.014627 20.811901 1.5966338 100 0 0
-1.8849955 21.842947 -0.15110262 100 0 0
1.8906319 23.708038 0.036636554 100 0 0
0.80465823 23.730549 -1.7120932 100 0 0
0.45477635 22.235189 1.8358568 100 0 0
1.7375008 20.525843 -0.74594474 100 0 0
-0.70195973 29.359341 -1.7565348 100 0 0
-1.5711904 30.329826 -1.0520658 100 0 0
-1.8351872 21.901577 0.45777175 100 0 0
1.0387881 20.288071 1.5802139 100 0 0
1.2318754 22.816492 -1.4347155 100 0 0
0.99272072 30.580441 -1.6096737 100 0 0
-1.7175988 17.326591 0.79193556 100 0 0
1.7739172 29.388531 0.65479869 100 0 0
1.8276005 28.762053 0.48681352 100 0 0
0.61221617 16.427172 -1.7892478 100 0 0
0.96669257 29.70002 1.6250668 100 0 0
1.2716875 21.265232 -1.3996164 100 0 0
1.786042 27.112778 -0.62112093 100 0 0
-0.14261635 27.596287 -1.8857975 100 0 0
-1.8577349 22.658417 0.35689932 100 0 0
1.6537306 25.425455 0.91822445 100 0 0
0.11452403 18.728321 1.8881841 100 0 0
-0.42540091 25.110018 -1.842423 100 0 0
1.7829386 22.243036 -0.62974066 100 0 0
1.3115817 18.624557 -1.3624835 100 0 0
1.8290693 29.763027 0.48175797 100 0 0
0.61212337 29.650026 1.7892814 100 0 0
1.5956349 25.136152 -1.0160966 100 0 0
-1.1272033 23.343225 1.5186627 100 0 0
1.4137142 24.568628 -1.2556967 100 0 0
1.106874 17.319803 -1.5339428 100 0 0
0.084777214 18.665411 -1.889119 100 0 0
-1.5228224 29.002808 -1.1218407 100 0 0
0.46310645 30.055164 1.8339947 100 0 0
0.57633048 27.121191 -1.8015933 100 0 0
-0.57885838 28.091499 1.8008589 100 0 0
-1.4342173 21.348537 1.2324404 100 0 0
-0.85870606 15.943826 -1.6846178 100 0 0
-1.4011023 16.49053 -1.2700019 100 0 0
-1.2275453 29.769224 1.4385331 100 0 0
0.50173438 27.961781 -1.8232657 100 0 0
-0.1015489 18.6784 -1.888592 100 0 0
-1.272289 22.825243 -1.3990861 100 0 0
-1.8734117 21.300823 -0.25891244 100 0 0
-1.8217959 25.061001 0.50679231 100 0 0
0.091040775 19.099735 1.8889221 100 0 0
1.8134742 17.04167 0.53543621 100 0 0
-0.36919898 27.131248 -1.8549856 100 0 0
0.31719604 30.404835 1.8641806 100 0 0
-0.61451006 17.837435 1.7884221 100 0 0
-1.5761256 26.63175 1.0448039 100 0 0
-1.2499837 20.063387 -1.4187508 100 0 0
0.48805469 18.038727 1.8272399 100 0 0
1.1415483 21.381475 -1.5075357 100 0 0
-1.8780247 31.126696 -0.22484505 100 0 0
1.7189784 19.900433 0.78874767 100 0 0
-1.7932389 31.155407 -0.60113072 100 0 0
0.6980387 29.840511 1.7582315 100 0 0
1.1490726 26.825455 -1.501699 100 0 0
1.6798394 29.599163 -0.86808395 100 0 0
-0.34748846 27.96273 1.8593826 100 0 0
0.051746137 29.642776 -1.890157 100 0 0
1.411063 30.023659 1.2587037 100 0 0
1.8373983 22.156013 -0.44788054 100 0 0
-1.8891869 21.45204 -0.082616761 100 0 0
-1.8056847 17.294266 -0.56224805 100 0 0
-1.2593434 29.877865 1.4104991 100 0 0
-1.2787904 30.6329 1.3933543 100 0 0
0.32295352 18.168919 1.8632686 100 0 0
-1.8336647 24.014687 -0.4645828 100 0 0
5.4110355 20.156258 -1.6724969 0 100 0
35.644867 19.047607 1.2930026 0 100 0
18.39879 26.07217 -2.2250414 0 100 0
29.867353 23.643873 -1.9931654 0 100 0
32.223949 22.178312 1.3367349 0 100 0
16.285757 25.797188 1.3439902 0 100 0
11.700253 24.405481 1.0880631 0 100 0
1.9699821 15.718405 1.2487558 0 100 0
19.075626 26.125359 1.4405272 0 100 0
29.125584 24.044325 2.2165849 0 100 0
16.895578 25.905308 -1.3468063 0 100 0
2.581362 16.699678 1.3751121 0 100 0
28.770498 24.200218 -0.67446041 0 100 0
8.4500713 22.627815 1.7464942 0 100 0
24.398842 25.672247 1.9280889 0 100 0
19.834164 26.131311 -1.625578 0 100 0
37.676956 16.30216 -1.7109442 0 100 0
24.483204 25.651283 -0.97993279 0 100 0
17.464262 25.986269 -2.576237 0 100 0
11.551535 24.33783 2.1426532 0 100 0
11.925558 24.507969 0.26088631 0 100 0
3.5171947 18.015554 -1.1385527 0 100 0
13.390589 25.056784 1.5153067 0 100 0
5.7291322 20.459906 -0.95854068 0 100 0
24.29603 25.6978 -1.8441472 0 100 0
16.919039 25.90947 0.90449715 0 100 0
36.875027 17.512087 0.030333428 0 100 0
11.338313 24.240837 -0.45719123 0 100 0
35.966766 18.690369 -1.9746358 0 100 0
30.371708 23.37159 -2.5559597 0 100 0
5.5735035 20.311346 0.52998799 0 100 0
9.7690363 23.439514 -2.6261318 0 100 0
36.178406 18.415808 -1.4739597 0 100 0
21.464621 26.080936 1.7408011 0 100 0
35.982616 18.669802 1.4799445 0 100 0
31.85907 22.431217 0.63778013 0 100 0
23.233742 25.879742 2.9977152 0 100 0
25.863365 25.308277 -2.4613817 0 100 0
34.989895 19.764181 -1.8989121 0 100 0
33.583393 21.103205 -1.9217031 0 100 0
9.6319332 23.36269 2.1827397 0 100 0
22.354353 26.013218 2.919333 0 100 0
29.907154 23.622387 -1.5437893 0 100 0
19.704834 26.130295 -0.90817928 0 100 0
1.9680331 15.715275 -1.5353869 0 100 0
38.025692 15.737279 0.52319735 0 100 0
31.199957 22.861958 1.362832 0 100 0
15.890099 25.727039 -1.3111787 0 100 0
15.833846 25.717066 -0.89083385 0 100 0
7.5304337 21.992743 2.8977742 0 100 0
4.4438 19.133556 -2.8911996 0 100 0
16.920364 25.909702 -0.30628049 0 100 0
4.1864705 18.842999 2.9202762 0 100 0
25.836592 25.314932 -3.2160223 0 100 0
39.465893 12.712517 0.08291477 0 100 0
34.737598 20.035542 2.5539229 0 100 0
25.45859 25.408873 -1.2682186 0 100 0
6.6954508 21.319798 0.049474236 0 100 0
32.839371 21.698059 -0.44529253 0 100 0
14.862192 25.487429 0.59159178 0 100 0
24.882767 25.551979 -1.4502014 0 100 0
27.127022 24.879303 -2.8087664 0 100 0
30.548773 23.275995 1.7319977 0 100 0
31.928385 22.38592 -0.59308964 0 100 0
9.2557259 23.151901 2.3503947 0 100 0
4.8501902 19.59243 -0.9478218 0 100 0
4.1317291 18.781185 -0.87990683 0 100 0
33.171261 21.43906 -1.5091732 0 100 0
34.118431 20.608282 1.488889 0 100 0
4.8366461 19.577137 -1.1186463 0 100 0
13.497656 25.095032 2.2429895 0 100 0
34.662323 20.105169 1.8041871 0 100 0
6.3740211 21.060743 2.0541365 0 100 0
2.4352608 16.465183 2.5209973 0 100 0
36.294228 18.265556 0.99210519 0 100 0
31.562706 22.624895 0.58120215 0 100 0
24.868183 25.555605 -1.5208547 0 100 0
6.2893 20.992466 -2.2007356 0 100 0
32.80336 21.72616 2.3199024 0 100 0
38.852699 14.146548 -0.90666914 0 100 0
30.821486 23.109293 -2.7704148 0 100 0
13.66285 25.154041 -0.8301878 0 100 0
39.966049 11.210537 -0.6005221 0 100 0
36.132118 18.475855 -1.7158502 0 100 0
24.973127 25.529526 2.0989366 0 100 0
8.0997372 22.39094 -2.7662036 0 100 0
17.32789 25.973736 1.2108331 0 100 0
39.635105 12.204376 -0.28047889 0 100 0
39.419838 12.824594 -1.0824538 0 100 0
7.9103594 22.262892 -0.29349071 0 100 0
2.5965455 16.724049 0.46407124 0 100 0
2.8785605 17.159601 0.99617058 0 100 0
38.046528 15.698131 -0.47157884 0 100 0
15.634052 25.681643 0.34483829 0 100 0
8.3846073 22.583553 0.86251879 0 100 0
24.309624 25.69442 2.7665572 0 100 0
28.289112 24.410141 2.9611793 0 100 0
23.826715 25.784184 -1.7941271 0 100 0
39.734489 11.905926 0.89211458 0 100 0
34.339195 20.404074 -1.8711798 0 100 0
7.103807 21.648909 -2.0833356 0 100 0
14.330597 25.34642 -1.2802767 0 100 0
7.3836384 21.874434 1.4830778 0 100 0
35.0294 19.720964 1.7151623 0 100 0
17.507526 25.990246 0.40713897 0 100 0
32.934841 21.623552 0.62336326 0 100 0
29.515305 23.833929 -1.0820081 0 100 0
32.285915 22.129955 -2.3120067 0 100 0
6.4725132 21.140123 -2.6250198 0 100 0
26.886585 24.96096 1.6048671 0 100 0
10.493493 23.845436 0.10671987 0 100 0
28.75655 24.206303 -2.164938 0 100 0
11.157784 24.158718 -2.8959603 0 100 0
1.943189 15.6754 -1.5250456 0 100 0
32.079613 22.287086 -0.40606576 0 100 0
7.2849784 21.794918 1.4730576 0 100 0
18.074631 26.042374 3.484426 0 100 0
3.1094041 17.468998 -0.0061152796 0 100 0
37.030754 17.30394 -0.96069592 0 100 0
2.7699041 17.002291 2.1654844 0 100 0
24.406738 25.670284 -0.84031707 0 100 0
25.743925 25.337963 0.5088526 0 100 0
8.771637 22.845243 -2.5937552 0 100 0
10.439143 23.814981 -2.2486749 0 100 0
5.6430936 20.377777 1.3117757 0 100 0
5.3261819 20.075258 -0.036107007 0 100 0
31.414051 22.722044 2.1437845 0 100 0
34.448677 20.302799 -1.4637223 0 100 0
33.779209 20.92207 1.1905571 0 100 0
32.526951 21.94186 -1.1119004 0 100 0
20.310331 26.135048 1.110047 0 100 0
6.7747226 21.383686 -1.444144 0 100 0
4.2101188 18.869699 -1.9562144 0 100 0
17.370337 25.977634 1.1761785 0 100 0
6.0589981 20.774788 1.8388908 0 100 0
24.438324 25.662437 1.6019733 0 100 0
26.99317 24.924759 2.7775741 0 100 0
1.9144454 15.629266 -0.41306114 0 100 0
18.319246 26.064859 -1.0904512 0 100 0
4.013144 18.647287 1.9947088 0 100 0
27.473038 24.761787 2.0147412 0 100 0
15.834877 25.717247 1.3430099 0 100 0
38.943939 13.933874 0.56389129 0 100 0
27.154922 24.869827 -0.98036987 0 100 0
17.362387 25.976904 3.3645911 0 100 0
5.7726202 20.501419 1.8695955 0 100 0
36.834183 17.565071 1.4874147 0 100 0
7.8489652 22.22138 -1.0592561 0 100 0
2.6550641 16.81797 1.9106531 0 100 0
14.35418 25.352674 2.3889637 0 100 0
8.4716225 22.642387 -2.2226553 0 100 0
5.9042797 20.627098 -1.1056871 0 100 0
33.275284 21.357885 -0.15314393 0 100 0
17.103638 25.942196 -1.4278842 0 100 0
6.1120725 20.825455 0.49814782 0 100 0
7.8393288 22.214865 0.35584527 0 100 0
28.655291 24.250462 -0.92846239 0 100 0
15.490668 25.654135 1.8282485 0 100 0
3.6957197 18.254829 2.1172903 0 100 0
26.568264 25.069071 -1.0198337 0 100 0
35.818886 18.857222 -0.5749886 0 100 0
10.210599 23.686926 -0.93979824 0 100 0
37.599297 16.422556 -1.1371572 0 100 0
39.586857 12.34926 -0.0036620453 0 100 0
34.798309 19.973787 1.0140265 0 100 0
30.0863 23.525669 0.011285548 0 100 0
7.6422615 22.081617 -0.88717878 0 100 0
36.564804 17.914537 0.20883106 0 100 0
35.36924 19.349159 -1.8434701 0 100 0
20.791725 26.132153 -1.2587364 0 100 0
38.679543 14.508717 -0.31748891 0 100 0
33.799843 20.902979 -0.69693768 0 100 0
23.043682 25.910366 -0.27884746 0 100 0
4.2053318 18.864294 0.29795307 0 100 0
4.9003534 19.649071 2.7327216 0 100 0
3.7230422 18.291449 -0.74958289 0 100 0
3.8025913 18.398067 -0.2164163 0 100 0
2.7463379 16.964466 1.3348203 0 100 0
6.3488202 21.040434 2.3620274 0 100 0
20.622667 26.137499 1.7122728 0 100 0
16.599522 25.852818 -3.4474113 0 100 0
1.9585899 15.700118 2.8395956 0 100 0
22.985619 25.919725 -1.4634566 0 100 0
30.334311 23.391777 1.178624 0 100 0
40.089947 10.748371 0.48691183 0 100 0
17.944647 26.030424 1.757912 0 100 0
12.94502 24.897615 -1.3867381 0 100 0
9.996129 23.566757 1.0144281 0 100 0
27.14113 24.874512 -3.1088865 0 100 0
23.75827 25.795212 2.512974 0 100 0
28.290571 24.409504 1.5070658 0 100 0
34.751411 20.022762 -1.3276249 0 100 0
10.113878 23.63273 -0.14180946 0 100 0
33.281292 21.353195 1.689314 0 100 0
23.735512 25.798878 -1.7637118 0 100 0
14.839673 25.481457 -0.74171066 0 100 0
36.071819 18.554079 -0.051441431 0 100 0
16.390272 25.81572 -3.5614514 0 100 0
29.34589 23.925394 2.6455095 0 100 0
34.396286 20.351261 -1.9852374 0 100 0
6.5038271 21.165359 -0.82667351 0 100 0
25.977829 25.269598 0.32583043 0 100 0
7.0323191 21.591293 -2.7672276 0 100 0
9.3222828 23.18919 -0.33442298 0 100 0
38.155731 15.492944 0.99850476 0 100 0
17.957371 26.031593 -2.1385188 0 100 0
29.842876 23.657085 -1.7864532 0 100 0
36.0989 18.518948 -0.76772463 0 100 0
38.263481 15.290482 -1.1136287 0 100 0
3.032177 17.36549 -2.6379833 0 100 0
29.629803 23.772116 -2.0251999 0 100 0
14.654731 25.432396 -2.1443417 0 100 0
38.233002 15.347749 0.98686498 0 100 0
3.8963761 18.51544 -0.22244431 0 100 0
20.125727 26.133598 1.1114123 0 100 0
7.0338202 21.592503 2.419543 0 100 0
24.084816 25.742588 1.1498786 0 100 0
1.9052477 15.614503 0.027433893 0 100 0
30.048473 23.546093 -1.0662168 0 100 0
12.501389 24.739136 2.4231265 0 100 0
17.728769 26.010584 3.1350484 0 100 0
32.034321 22.316689 2.3544419 0 100 0
5.575089 20.31286 1.6427368 0 100 0
30.465313 23.321053 2.5021195 0 100 0
18.347879 26.067492 -2.1662843 0 100 0
30.753969 23.153416 -2.26194 0 100 0
3.2737865 17.689318 -2.9078746 0 100 0
8.2467623 22.490349 -2.9051306 0 100 0
23.721991 25.801058 0.90522927 0 100 0
38.791115 14.290101 -0.93777287 0 100 0
5.8769741 20.601034 1.1451585 0 100 0
11.8192 24.459587 1.2715499 0 100 0
3.589895 18.112995 1.110715 0 100 0
24.434185 25.663464 1.8597033 0 100 0
8.5441418 22.691422 -1.029213 0 100 0
30.278044 23.422155 -0.25452447 0 100 0
25.034519 25.514267 2.0204859 0 100 0
27.181475 24.860809 0.7058686 0 100 0
27.676071 24.677475 1.974299 0 100 0
26.659607 25.038048 2.5584559 0 100 0
24.683933 25.601395 2.9084535 0 100 0
10.937491 24.058508 2.2573555 0 100 0
40.398865 9.4729843 0.66946048 0 100 0
27.946598 24.559505 2.8755834 0 100 0
20.488075 26.136444 0.1195282 0 100 0
34.980812 19.774117 -1.3263702 0 100 0
38.603245 14.652075 0.73138213 0 100 0
16.408384 25.81893 -2.0876446 0 100 0
6.6694927 21.298878 2.9201338 0 100 0
3.6395946 18.179605 -2.2669008 0 100 0
13.401654 25.060738 0.49769658 0 100 0
18.46711 26.078449 3.4302659 0 100 0
10.169104 23.663673 -2.8234844 0 100 0
33.212906 21.406561 -0.79911339 0 100 0
35.6791 19.010157 1.6118472 0 100 0
37.620743 16.389303 -1.9441721 0 100 0
27.122114 24.88097 2.8590763 0 100 0
7.1225977 21.664051 0.25330108 0 100 0
27.03359 24.911034 -1.4753768 0 100 0
27.296719 24.821669 0.87960333 0 100 0
8.9667253 22.977152 -2.5104375 0 100 0
16.960678 25.916849 -1.624221 0 100 0
22.283936 26.018578 -0.79749244 0 100 0
27.16033 24.86799 1.5216517 0 100 0
18.334677 26.066277 0.047320031 0 100 0
3.3637259 17.809862 -2.652669 0 100 0
6.6800508 21.307384 2.0831995 0 100 0
20.129232 26.133629 -1.4654603 0 100 0
24.958549 25.533146 -1.4439989 0 100 0
9.9070387 23.516838 0.45901549 0 100 0
4.3158331 18.989065 -2.2918811 0 100 0
30.737068 23.164461 -0.61581242 0 100 0
21.341352 26.090321 1.4067086 0 100 0
18.052082 26.040302 -0.13448285 0 100 0
5.7378473 20.468225 -1.7357317 0 100 0
6.4760795 21.142998 -2.1391525 0 100 0
13.556479 25.116045 0.58828318 0 100 0
24.78261 25.576872 3.2635345 0 100 0
18.942799 26.122173 -3.3443189 0 100 0
37.627892 16.378227 -1.7335684 0 100 0
5.5468445 20.285898 2.9620223 0 100 0
16.757523 25.880833 3.5718508 0 100 0
8.7052822 22.800377 -1.3888094 0 100 0
29.137218 24.038048 0.59373891 0 100 0
32.316681 22.105946 0.73074681 0 100 0
12.751654 24.828537 -0.6697216 0 100 0
5.5912714 20.328308 -2.1688144 0 100 0
38.44363 14.951983 0.97941321 0 100 0
38.917221 13.996149 -0.98243034 0 100 0
32.109146 22.267788 0.5653671 0 100 0
4.5389495 19.240995 0.88036752 0 100 0
4.1559582 18.808544 0.56629473 0 100 0
6.8131127 21.414625 2.8777237 0 100 0
35.153545 19.58514 -0.083176047 0 100 0
33.082703 21.508169 -0.70978045 0 100 0
17.573494 25.996311 -1.0332897 0 100 0
34.061615 20.660841 -0.39176011 0 100 0
6.6264548 21.264191 -0.90642393 0 100 0
36.354481 18.187387 0.31306076 0 100 0
