ply
format ascii 1.0
comment PCL generated
element vertex 1230
property float x
property float y
property float z
property uchar red
property uchar green
property uchar blue
element camera 0
property float view_px
property float view_py
property float view_pz
property float x_axisx
property float x_axisy
property float x_axisz
property float y_axisx
property float y_axisy
property float y_axisz
property float z_axisx
property float z_axisy
property float z_axisz
property float focal
property float scalex
property float scaley
property float centerx
property float centery
property int viewportx
property int viewporty
property float k1
property float k2
end_header
18.767653 19.549326 3.0340893 0 100 0
27.606386 8.6520681 -2.276583 0 100 0
8.129755 19.720608 0.90990913 0 100 0
12.544222 20.620916 -3.7558327 0 100 0
8.4884167 19.844681 -0.64293647 0 100 0
3.4222698 16.861507 -1.1327277 0 100 0
23.700562 16.219549 3.1043901 0 100 0
22.112314 17.635019 -3.22576 0 100 0
20.500401 18.702934 -0.2548728 0 100 0
12.256136 20.604912 1.2033176 0 100 0
23.362175 16.552418 -2.5125248 0 100 0
15.31663 20.488428 -1.4788462 0 100 0
9.5387592 20.163565 -3.3311298 0 100 0
24.684471 15.104942 -1.998704 0 100 0
26.60511 11.900236 -0.60273051 0 100 0
3.7676263 17.154245 1.3063067 0 100 0
24.131695 15.759758 1.5636219 0 100 0
7.8552909 19.62566 0.12129052 0 100 0
2.6686544 16.117863 3.5153666 0 100 0
5.0071516 18.101242 1.688526 0 100 0
19.987255 18.983015 -2.015944 0 100 0
27.811399 6.8523145 -1.1950694 0 100 0
9.6434307 20.18924 3.3195758 0 100 0
26.197643 12.772828 0.18199673 0 100 0
19.966364 18.994417 -2.5355985 0 100 0
25.374884 14.149614 3.3463829 0 100 0
8.1042118 19.711771 -1.9428728 0 100 0
26.676912 11.740963 1.413764 0 100 0
13.570352 20.634092 3.0820553 0 100 0
19.392471 19.279913 -0.54216468 0 100 0
6.3577218 18.923836 -2.1993737 0 100 0
24.636559 15.161699 -2.4887524 0 100 0
10.112394 20.304264 -3.3290052 0 100 0
27.09948 10.611616 -2.607872 0 100 0
27.666292 8.244627 -1.6019887 0 100 0
20.647928 18.622414 1.43135 0 100 0
27.633337 8.4687672 -1.8758876 0 100 0
21.392904 18.143278 -2.6689579 0 100 0
11.348692 20.517223 3.6597633 0 100 0
18.677887 19.588034 4.3981571 0 100 0
23.456671 16.459463 -1.604561 0 100 0
14.24856 20.608971 1.7434428 0 100 0
27.843891 2.7958312 -0.63404858 0 100 0
26.156729 12.844943 -1.4128993 0 100 0
18.153643 19.788752 2.1886182 0 100 0
27.744217 7.7146654 -2.3174801 0 100 0
6.4995284 19.004669 -3.7473364 0 100 0
26.450169 12.243914 3.022038 0 100 0
11.324824 20.513666 1.07102 0 100 0
17.165899 20.110153 -2.9503925 0 100 0
18.528641 19.652386 -1.1794144 0 100 0
27.826706 5.5553751 -1.7523391 0 100 0
24.862347 14.885159 -2.4883013 0 100 0
6.289073 18.884705 2.8015418 0 100 0
27.610161 8.6264009 2.6161401 0 100 0
22.236401 17.533716 3.6970842 0 100 0
6.3136835 18.898733 0.57131118 0 100 0
19.408089 19.273174 -1.6444628 0 100 0
23.279985 16.633266 -2.7624004 0 100 0
27.820274 5.3907361 -0.20516458 0 100 0
27.360001 9.7347136 -2.1487868 0 100 0
21.044054 18.377934 -3.2643871 0 100 0
25.880604 13.331635 -2.7626355 0 100 0
24.500259 15.323157 -1.8792557 0 100 0
10.22059 20.330803 1.8223853 0 100 0
12.534204 20.620359 -0.20069027 0 100 0
15.874369 20.407587 3.1897669 0 100 0
21.823984 17.85331 -3.6798296 0 100 0
15.262497 20.49548 -2.5807021 0 100 0
4.331059 17.628101 -3.1986873 0 100 0
9.1813707 20.075905 -2.7708931 0 100 0
19.539877 19.216351 -2.937017 0 100 0
12.407116 20.6133 -2.0478883 0 100 0
21.495262 18.074425 -1.045156 0 100 0
6.6304545 19.074341 3.8604867 0 100 0
19.992359 18.980228 -0.97428077 0 100 0
21.976736 17.745705 -3.4303784 0 100 0
18.946751 19.472101 4.4838495 0 100 0
5.6431432 18.516508 2.5428863 0 100 0
23.445948 16.470011 -1.6868545 0 100 0
22.861897 17.023064 -4.1762567 0 100 0
20.503742 18.701111 -1.9843526 0 100 0
14.832151 20.551542 -3.844399 0 100 0
27.115749 10.564285 3.0776494 0 100 0
7.7240324 19.570023 -1.1149628 0 100 0
7.3804512 19.414289 3.638721 0 100 0
20.931269 18.4538 -3.5023432 0 100 0
20.356379 18.781544 -2.3273692 0 100 0
20.477243 18.715574 4.2118473 0 100 0
13.263317 20.645466 1.1955032 0 100 0
26.403746 12.346886 -2.2781899 0 100 0
27.409679 9.5303755 -0.50135624 0 100 0
5.6613598 18.526894 -3.5385542 0 100 0
13.96356 20.619526 -2.1356566 0 100 0
11.393809 20.523951 0.68154967 0 100 0
7.8813972 19.634691 -0.11541664 0 100 0
13.940127 20.620396 0.60909009 0 100 0
9.637104 20.187687 3.2356393 0 100 0
18.14583 19.791294 -0.29713583 0 100 0
14.790249 20.557003 0.42475769 0 100 0
4.4334879 17.699781 3.5948212 0 100 0
26.524118 12.079881 1.5208069 0 100 0
5.0840902 18.155085 1.0729094 0 100 0
9.058279 20.041817 1.8874301 0 100 0
25.141655 14.484321 2.8995218 0 100 0
27.807121 5.0540533 -0.64251423 0 100 0
13.407263 20.640133 -0.56283289 0 100 0
19.286934 19.325417 2.9769297 0 100 0
4.7063103 17.890709 2.7910967 0 100 0
7.4627414 19.451588 3.0732913 0 100 0
16.60701 20.242165 -3.6845818 0 100 0
19.186779 19.368605 -4.1516366 0 100 0
2.8309698 16.283539 -3.6105754 0 100 0
11.219863 20.498016 2.6543989 0 100 0
9.8068275 20.229317 -1.8933071 0 100 0
3.1869826 16.646923 -2.3012848 0 100 0
25.621452 13.788417 -2.6737304 0 100 0
6.8878551 19.191013 0.51383376 0 100 0
24.482746 15.343904 -3.51702 0 100 0
3.6338124 17.040819 -1.2156386 0 100 0
17.304358 20.0651 -3.6331084 0 100 0
26.603214 11.904436 0.081563041 0 100 0
3.711236 17.106447 -0.86249173 0 100 0
7.9711714 19.665747 -2.8433514 0 100 0
22.808992 17.066256 -0.61924875 0 100 0
23.548895 16.368748 -1.6317714 0 100 0
17.288979 20.070105 4.6269774 0 100 0
16.028376 20.372812 4.0808005 0 100 0
25.922646 13.257534 1.1549996 0 100 0
3.1409831 16.59997 -1.2292274 0 100 0
17.259335 20.07975 1.2855625 0 100 0
12.963199 20.64419 0.3832944 0 100 0
13.221205 20.647026 0.37731573 0 100 0
23.345469 16.568853 0.42196643 0 100 0
20.551188 18.675217 -0.69450128 0 100 0
23.335442 16.578714 3.6895671 0 100 0
5.4422646 18.402004 -0.69337517 0 100 0
6.4226966 18.960873 -1.7201586 0 100 0
11.343994 20.516523 -2.9709194 0 100 0
22.482574 17.332741 3.8908875 0 100 0
17.576847 19.976437 3.4517467 0 100 0
8.7805624 19.945744 -3.5422413 0 100 0
12.381285 20.611864 -0.87607002 0 100 0
26.137337 12.879125 2.776845 0 100 0
2.7921767 16.243944 2.5574763 0 100 0
9.0537014 20.040232 -1.430989 0 100 0
13.086634 20.651043 1.0001354 0 100 0
8.5482225 19.86537 -2.3454232 0 100 0
2.5306187 15.976971 -3.0302505 0 100 0
16.153913 20.344469 4.3887973 0 100 0
20.081619 18.931511 4.272131 0 100 0
27.079407 10.670029 1.3623712 0 100 0
7.3213334 19.387493 -2.3699763 0 100 0
18.112152 19.802254 -2.540668 0 100 0
2.8895416 16.343323 2.8014059 0 100 0
16.95871 20.162754 -1.3702935 0 100 0
15.728314 20.434795 -4.6832571 0 100 0
14.985947 20.531509 -0.27823654 0 100 0
27.025208 10.827725 -1.8687744 0 100 0
22.763065 17.103752 -1.6862285 0 100 0
24.771858 15.001424 2.2013085 0 100 0
22.236124 17.533943 -0.33194366 0 100 0
22.912727 16.981567 -2.2481821 0 100 0
5.8804741 18.651794 2.8387072 0 100 0
26.366585 12.429312 -2.4527588 0 100 0
9.7402115 20.212976 -2.9285259 0 100 0
4.7569404 17.926142 1.5076648 0 100 0
18.77149 19.54767 3.1668465 0 100 0
22.030903 17.701485 3.5471845 0 100 0
25.058401 14.603798 -1.5401154 0 100 0
18.284801 19.746075 -2.7685292 0 100 0
13.151536 20.649607 3.5191183 0 100 0
20.280762 18.822815 0.79948175 0 100 0
16.843113 20.188856 0.092406265 0 100 0
25.150059 14.47226 -2.6510146 0 100 0
20.578083 18.660536 -0.25793451 0 100 0
3.0104458 16.46673 1.4546362 0 100 0
19.406891 19.273693 -2.6707113 0 100 0
9.0356245 20.033979 3.70016 0 100 0
5.6187816 18.502625 -3.7493937 0 100 0
23.32596 16.588039 0.59009975 0 100 0
19.194714 19.365183 0.59376496 0 100 0
17.275684 20.074429 1.3738744 0 100 0
24.392294 15.451053 1.1282182 0 100 0
25.190891 14.41366 -2.3323691 0 100 0
20.783379 18.548481 2.6533308 0 100 0
22.552067 17.276009 1.7015898 0 100 0
14.227007 20.609768 -1.8181746 0 100 0
3.4668124 16.899263 -2.573256 0 100 0
20.716356 18.585064 2.5757079 0 100 0
22.823563 17.054359 -1.8112717 0 100 0
27.788099 7.2876759 -0.22506145 0 100 0
5.0582337 18.136993 2.2937138 0 100 0
25.981144 13.154428 -3.2525904 0 100 0
7.721735 19.568981 -3.5211101 0 100 0
2.90727 16.36142 -2.3660517 0 100 0
21.12591 18.322872 -1.0804647 0 100 0
3.2526743 16.713972 -0.9333998 0 100 0
25.174868 14.436653 3.0612102 0 100 0
19.92452 19.017254 -1.1246186 0 100 0
5.3105068 18.313536 0.14694019 0 100 0
27.222164 10.254636 0.57527775 0 100 0
10.872545 20.446232 -2.4454553 0 100 0
26.304478 12.567072 -2.7006114 0 100 0
3.2327907 16.693678 -0.38072601 0 100 0
20.769707 18.555946 2.6269588 0 100 0
5.2890706 18.298536 -1.5488911 0 100 0
20.496384 18.705126 -2.7065084 0 100 0
19.028921 19.43667 4.2603159 0 100 0
8.3435326 19.794561 2.6018145 0 100 0
24.192169 15.688119 -2.9463274 0 100 0
25.537868 13.915712 -3.4475377 0 100 0
26.955383 11.030899 -2.263191 0 100 0
18.09532 19.807732 1.274865 0 100 0
16.226965 20.327976 -3.0088742 0 100 0
14.860677 20.547829 -1.9837933 0 100 0
27.828526 6.5323563 0.162939 0 100 0
26.159697 12.839716 -2.6921561 0 100 0
10.203403 20.326588 3.6676347 0 100 0
14.730011 20.56485 -3.6465025 0 100 0
24.138611 15.751563 2.3405983 0 100 0
27.830856 2.4621582 -0.60129112 0 100 0
4.5029278 17.748379 -1.3734249 0 100 0
5.0017781 18.097483 1.9140606 0 100 0
27.022318 10.83614 -2.5011899 0 100 0
18.707584 19.575228 -4.4679985 0 100 0
5.1118279 18.1745 -2.1213834 0 100 0
6.7299142 19.119423 1.8112648 0 100 0
25.84955 13.386371 -1.4102203 0 100 0
23.421518 16.494041 2.3348129 0 100 0
18.087667 19.810219 0.33774939 0 100 0
9.6407509 20.18858 -1.6411686 0 100 0
26.137089 12.879562 -1.1367844 0 100 0
16.568174 20.250935 2.2499127 0 100 0
3.4771423 16.90802 -2.6059582 0 100 0
20.019783 18.96526 -0.80479985 0 100 0
19.707499 19.135708 2.3350384 0 100 0
8.5314846 19.859577 0.64250332 0 100 0
2.4264655 15.870661 -1.7794921 0 100 0
18.43178 19.694153 -0.48475814 0 100 0
27.82221 6.650363 1.6021683 0 100 0
4.0177212 17.366236 -0.5464502 0 100 0
19.574066 19.201609 1.4369106 0 100 0
12.004259 20.590921 3.1820176 0 100 0
27.290188 10.02184 -0.32780588 0 100 0
22.101721 17.643669 2.6015365 0 100 0
2.9415264 16.396383 -3.6942487 0 100 0
27.515289 9.0960159 1.7655182 0 100 0
5.4309592 18.395559 2.3735058 0 100 0
27.777637 7.4831681 2.2748802 0 100 0
24.428089 15.408653 -2.1022587 0 100 0
8.7300482 19.928268 -0.90400064 0 100 0
13.290392 20.644463 2.0134928 0 100 0
10.664157 20.415159 2.6572556 0 100 0
4.4638357 17.72102 2.5673711 0 100 0
22.660889 17.187166 -3.275701 0 100 0
16.089392 20.359035 1.5198622 0 100 0
20.841621 18.514099 -1.8941451 0 100 0
10.924137 20.453922 -0.78735441 0 100 0
9.8037453 20.228561 -2.3253732 0 100 0
9.2216053 20.085773 -0.037134215 0 100 0
23.962261 15.960466 1.7327774 0 100 0
27.837133 4.0345078 -1.0957435 0 100 0
25.487329 13.988241 -3.468616 0 100 0
19.382074 19.284395 1.0678459 0 100 0
13.496769 20.636818 3.7006321 0 100 0
25.549044 13.899673 0.6478321 0 100 0
13.539957 20.635218 1.8160763 0 100 0
11.840321 20.581814 3.4267919 0 100 0
22.705204 17.150988 3.8916869 0 100 0
27.43417 9.4296513 2.5846553 0 100 0
27.860069 3.2098377 -0.12137236 0 100 0
27.796959 4.793993 1.5145202 0 100 0
14.658192 20.574205 -3.6579239 0 100 0
18.569674 19.634693 2.1318161 0 100 0
12.344096 20.609798 2.7548327 0 100 0
15.043505 20.52401 1.3132018 0 100 0
25.597443 13.830214 3.5264001 0 100 0
14.381008 20.604061 2.4115198 0 100 0
10.520992 20.393814 3.9081337 0 100 0
19.084719 19.412611 -1.4210501 0 100 0
24.37104 15.47623 1.5218335 0 100 0
7.0941243 19.284508 1.7219769 0 100 0
6.843688 19.170992 -0.43203828 0 100 0
27.852749 3.7427058 -0.67090964 0 100 0
25.241407 14.341162 -1.6844239 0 100 0
4.3296881 17.62714 2.3131838 0 100 0
18.309967 19.737885 -3.1295695 0 100 0
17.488615 20.005146 -4.5710268 0 100 0
14.300041 20.607061 0.811647 0 100 0
14.16563 20.612041 2.5090926 0 100 0
24.090111 15.809016 0.37987483 0 100 0
7.2882314 19.37249 3.7386246 0 100 0
23.46579 16.450493 0.51436895 0 100 0
3.3727782 16.819557 -2.0004532 0 100 0
25.389591 14.128505 -1.2663829 0 100 0
8.2985125 19.778988 0.32448697 0 100 0
7.2661529 19.36248 1.0895119 0 100 0
3.2196169 16.680231 -2.572325 0 100 0
3.0492485 16.506336 2.0128634 0 100 0
27.776981 7.4918051 -0.14564513 0 100 0
20.517015 18.693867 -0.21938983 0 100 0
27.652498 8.3384504 2.0052447 0 100 0
3.0587435 16.516027 2.0506263 0 100 0
10.060548 20.291548 -1.1680852 0 100 0
4.8153939 17.967049 -0.33015919 0 100 0
27.435917 9.4224663 -2.2140384 0 100 0
3.4955175 16.923595 3.7745643 0 100 0
15.327658 20.48699 0.85603464 0 100 0
10.707636 20.421642 -2.485924 0 100 0
27.720108 7.8786325 1.3256024 0 100 0
27.713516 7.9234543 2.400557 0 100 0
27.833717 2.5353227 -0.92530656 0 100 0
10.640394 20.411617 0.90858185 0 100 0
27.826468 5.5492616 -1.8970106 0 100 0
2.7177114 16.167936 -1.1120652 0 100 0
7.754868 19.584 -1.7423199 0 100 0
19.301737 19.319035 -2.7514749 0 100 0
20.409525 18.752537 1.1844413 0 100 0
25.811996 13.452565 -0.023564816 0 100 0
19.552589 19.210869 -3.9561324 0 100 0
7.651794 19.537279 -0.59384727 0 100 0
17.094019 20.132204 -0.13495809 0 100 0
17.847176 19.888474 4.3033895 0 100 0
4.535193 17.770958 -1.0095813 0 100 0
8.3990936 19.81378 -0.065570012 0 100 0
21.232393 18.251247 -1.0887051 0 100 0
18.572878 19.633312 -3.6764791 0 100 0
5.1782632 18.220989 2.0462921 0 100 0
14.586324 20.583569 1.9911662 0 100 0
15.596257 20.452 1.239007 0 100 0
4.512444 17.755037 -3.102761 0 100 0
27.839392 6.3293028 -1.2612531 0 100 0
27.596626 8.7184362 2.6620064 0 100 0
4.5866275 17.806952 -3.0128281 0 100 0
22.161236 17.595081 -0.74692571 0 100 0
23.121754 16.788918 -2.9588678 0 100 0
4.4462748 17.708731 -1.4786887 0 100 0
27.686275 8.1087303 2.3529954 0 100 0
21.317007 18.19433 1.8444604 0 100 0
16.178501 20.338917 -0.54471242 0 100 0
9.7526884 20.216038 2.4222195 0 100 0
4.1303945 17.461742 2.8768692 0 100 0
26.364964 12.432907 0.60236293 0 100 0
27.023178 10.833639 -2.4204483 0 100 0
5.0130167 18.105349 1.7322874 0 100 0
20.492085 18.707474 -2.3623538 0 100 0
14.860172 20.547894 2.2742603 0 100 0
6.6218948 19.070461 -2.7585812 0 100 0
14.597303 20.582138 -1.3563554 0 100 0
26.860573 11.306779 2.1546409 0 100 0
7.5625124 19.496811 -0.4771868 0 100 0
15.306668 20.489727 -1.497403 0 100 0
27.84403 2.7993689 -0.36863637 0 100 0
17.447315 20.018581 2.3953011 0 100 0
27.807165 6.9314384 1.0338131 0 100 0
20.234077 18.848295 -0.072074644 0 100 0
27.484444 9.2228851 1.4296315 0 100 0
19.33662 19.303995 -0.68544 0 100 0
17.507399 19.999031 -0.67628086 0 100 0
7.8578939 19.62656 -0.98007363 0 100 0
4.1706862 17.495895 2.5738895 0 100 0
8.1914148 19.741938 1.9189513 0 100 0
19.000292 19.449017 1.2978261 0 100 0
27.868458 3.4492092 -1.1186378 0 100 0
22.006237 17.721622 -0.54809928 0 100 0
6.6305304 19.074377 -2.88978 0 100 0
7.499114 19.468075 2.1789567 0 100 0
26.2313 12.713503 3.4492364 0 100 0
27.852394 3.7493367 -0.84317929 0 100 0
12.02703 20.592186 -2.4062521 0 100 0
7.8479052 19.623106 -3.3021433 0 100 0
27.697069 8.0353069 -1.1823207 0 100 0
18.930775 19.478989 3.9883771 0 100 0
27.678041 8.1647358 -0.49522308 0 100 0
27.331352 9.8525429 -0.28780335 0 100 0
20.227541 18.851864 -4.2174416 0 100 0
19.141762 19.388016 -3.3740315 0 100 0
6.9513741 19.219803 -0.78888839 0 100 0
20.881386 18.487354 1.8262018 0 100 0
10.837944 20.441069 1.5891412 0 100 0
2.7153802 16.165556 2.9326386 0 100 0
2.8925803 16.346424 -0.77654797 0 100 0
20.126289 18.907127 3.9434781 0 100 0
25.005802 14.679279 0.2000879 0 100 0
2.6101534 16.058151 2.8305585 0 100 0
13.555376 20.634647 -1.5355252 0 100 0
9.4035454 20.1304 -3.901772 0 100 0
21.53928 18.044815 3.9131489 0 100 0
2.7916832 16.243439 2.3726087 0 100 0
27.583071 8.8106308 0.85300112 0 100 0
18.239323 19.760872 -3.4949875 0 100 0
25.510204 13.955412 1.4177847 0 100 0
2.8536997 16.306742 2.330827 0 100 0
25.295773 14.263144 -2.6498361 0 100 0
27.824642 6.6049018 -1.4944742 0 100 0
10.248239 20.337585 -0.2094124 0 100 0
25.571621 13.86727 -1.1993563 0 100 0
24.318874 15.538025 -2.8563025 0 100 0
27.795282 7.1534834 -2.1108911 0 100 0
15.284531 20.492611 -1.0031087 0 100 0
13.440462 20.638905 -0.62702817 0 100 0
2.836951 16.289644 -1.9129061 0 100 0
12.747895 20.632233 0.98434353 0 100 0
26.119267 12.910975 -1.2985191 0 100 0
13.912336 20.621422 0.87777483 0 100 0
27.524994 9.0560904 -0.38480434 0 100 0
27.804178 6.987258 -1.9458414 0 100 0
4.2844715 17.592346 -1.5159705 0 100 0
14.656545 20.574421 -2.0900028 0 100 0
18.999424 19.44939 -1.6457266 0 100 0
24.903526 14.82606 0.55876839 0 100 0
6.7424297 19.125095 -0.60053653 0 100 0
23.275166 16.638008 -1.3711861 0 100 0
27.713367 7.9244804 2.3904302 0 100 0
23.021873 16.887171 -2.914814 0 100 0
27.843159 6.2589459 -1.0178237 0 100 0
4.6209407 17.830967 -1.324778 0 100 0
13.04841 20.648922 -1.4668558 0 100 0
11.266648 20.504992 1.0275954 0 100 0
2.7373512 16.187983 -3.9068873 0 100 0
16.166489 20.341629 0.10751916 0 100 0
3.7095261 17.104998 -0.29389623 0 100 0
20.77508 18.553011 2.523581 0 100 0
5.6850004 18.540369 -2.7241521 0 100 0
15.116356 20.514519 -3.7599425 0 100 0
14.219477 20.610046 -1.899756 0 100 0
8.2819738 19.773266 3.526547 0 100 0
25.182995 14.424994 -3.5121033 0 100 0
23.730679 16.189924 3.4652205 0 100 0
27.863115 3.2878656 -0.27649289 0 100 0
2.4621639 15.907099 -2.5004811 0 100 0
5.1359425 18.191374 -0.20357114 0 100 0
9.1042995 20.057003 -1.860065 0 100 0
25.215097 14.378922 2.229872 0 100 0
19.067112 19.420202 1.4462478 0 100 0
26.292648 12.593311 0.85579783 0 100 0
20.289074 18.818279 2.9490581 0 100 0
24.116337 15.777951 0.24810636 0 100 0
12.386868 20.612175 -2.5610716 0 100 0
23.585384 16.332848 2.0844083 0 100 0
16.751091 20.209633 -0.68507224 0 100 0
9.3297281 20.112293 2.910893 0 100 0
12.752853 20.632504 -3.8960094 0 100 0
10.988443 20.463509 2.5422835 0 100 0
6.0446234 18.745363 0.29984349 0 100 0
18.845097 19.515934 -0.44832134 0 100 0
13.862703 20.623264 -2.1089594 0 100 0
24.222532 15.652152 1.6660787 0 100 0
27.8255 4.251833 1.0760193 0 100 0
14.900139 20.542686 -4.4778805 0 100 0
27.786753 7.3128233 2.0613847 0 100 0
5.5716982 18.475784 -1.2878524 0 100 0
27.745834 7.7036552 -1.193126 0 100 0
27.825172 6.5950022 1.046491 0 100 0
14.412069 20.602911 -0.012630693 0 100 0
17.789953 19.907093 -0.68633497 0 100 0
23.836531 16.085798 -0.080468819 0 100 0
8.2358217 19.757299 -1.6123183 0 100 0
25.162912 14.453814 1.1048298 0 100 0
5.4718933 18.418894 -3.5716474 0 100 0
9.0008183 20.021936 0.56986004 0 100 0
4.463068 17.720482 -3.4169171 0 100 0
26.047016 13.038325 -1.3742012 0 100 0
20.216011 18.858158 1.9304574 0 100 0
8.7729568 19.943111 -3.2006307 0 100 0
7.9401436 19.655014 2.8166599 0 100 0
16.025251 20.37352 -1.8941451 0 100 0
16.524981 20.260687 0.79769361 0 100 0
2.4520884 15.896814 -1.6389372 0 100 0
14.726297 20.565334 2.124629 0 100 0
13.956408 20.619791 -2.2238281 0 100 0
11.203895 20.495634 -2.1815577 0 100 0
15.008221 20.528606 1.4754436 0 100 0
4.074235 17.414139 -3.597476 0 100 0
19.27496 19.330582 -3.3909271 0 100 0
27.822021 6.6538796 0.2155697 0 100 0
26.533287 12.059546 -1.9115508 0 100 0
19.624636 19.179804 -1.829519 0 100 0
25.160881 14.456728 -0.65749037 0 100 0
18.716209 19.571508 -2.8144701 0 100 0
8.1127644 19.714729 -0.46778718 0 100 0
24.46315 15.367117 0.16356415 0 100 0
10.266521 20.342068 2.4896748 0 100 0
23.270878 16.642227 -2.5686755 0 100 0
27.848713 6.1551566 0.96382284 0 100 0
16.176117 20.339455 -1.307205 0 100 0
19.911953 19.024113 -0.71419901 0 100 0
3.0992346 16.557358 -1.4250027 0 100 0
27.845877 2.8466125 0.86084962 0 100 0
10.521111 20.393833 3.4942667 0 100 0
27.843304 3.9191883 1.5539269 0 100 0
12.374514 20.61149 2.3636642 0 100 0
14.828602 20.552006 0.38918054 0 100 0
27.857403 3.6557591 0.09871655 0 100 0
22.479259 17.335447 2.5684826 0 100 0
22.882528 17.006222 -2.78073 0 100 0
5.4917474 18.430212 3.1367874 0 100 0
19.20228 19.361919 2.1755476 0 100 0
11.95857 20.588381 -3.8304303 0 100 0
17.100477 20.130745 3.8210013 0 100 0
14.651217 20.575115 -0.090858281 0 100 0
15.775061 20.428707 1.9952209 0 100 0
26.692978 11.705333 0.34382549 0 100 0
3.3372607 16.78945 3.1399722 0 100 0
6.3628607 18.926765 -2.1807108 0 100 0
19.913553 19.023241 -4.3367338 0 100 0
13.307069 20.643845 -1.0934637 0 100 0
10.217067 20.329937 1.918011 0 100 0
26.912249 11.15641 -2.6596308 0 100 0
27.398987 9.574358 -2.5726843 0 100 0
27.232405 10.224842 -0.88855088 0 100 0
27.808426 5.0874491 1.4085937 0 100 0
27.837557 5.8330998 -0.23648587 0 100 0
3.9086514 17.273785 3.808331 0 100 0
2.5964565 16.04417 -1.0378381 0 100 0
23.538475 16.378992 2.0333636 0 100 0
20.961044 18.433773 -1.4262822 0 100 0
9.9932623 20.275043 -2.4647698 0 100 0
22.244633 17.526997 -1.1900485 0 100 0
25.600296 13.825708 -1.6706686 0 100 0
27.866344 3.4887094 1.1884903 0 100 0
8.0703917 19.700071 0.13737218 0 100 0
26.21633 12.739895 -3.5114274 0 100 0
5.6020627 18.493093 0.50077987 0 100 0
7.9152966 19.646418 0.84808767 0 100 0
23.322672 16.591276 2.206069 0 100 0
9.2453785 20.091606 -1.9826019 0 100 0
27.808815 6.9006567 1.8766077 0 100 0
15.524423 20.461359 3.3618767 0 100 0
27.56867 8.8764639 2.4623666 0 100 0
27.266794 10.118051 0.49306911 0 100 0
24.842316 14.913902 1.7966506 0 100 0
27.775986 7.4986019 -2.1748815 0 100 0
8.3305674 19.790075 -0.084766075 0 100 0
21.338512 18.179867 3.965064 0 100 0
14.478344 20.597635 -1.2758807 0 100 0
27.840824 3.9654715 -1.3093312 0 100 0
25.62689 13.778833 1.7185031 0 100 0
5.0593901 18.137802 -0.56031132 0 100 0
23.564497 16.353397 0.67922592 0 100 0
19.037643 19.432907 -0.79645967 0 100 0
16.120251 20.35207 -1.1876605 0 100 0
14.70265 20.568415 -1.0871346 0 100 0
14.220404 20.610012 -2.2350271 0 100 0
15.638932 20.44644 0.52079415 0 100 0
19.000256 19.44903 0.52102494 0 100 0
16.71991 20.216675 3.3491168 0 100 0
24.894638 14.838814 -1.1196091 0 100 0
23.246763 16.665947 -0.87580824 0 100 0
26.302893 12.570588 3.3326826 0 100 0
3.9705343 17.326239 2.6034222 0 100 0
12.046569 20.593271 2.7762799 0 100 0
26.284533 12.611315 -1.5613867 0 100 0
13.828382 20.624535 0.88118917 0 100 0
5.0922012 18.160763 -1.108369 0 100 0
8.1424465 19.724998 -1.8336083 0 100 0
14.453289 20.600899 -4.7602725 0 100 0
27.196661 10.328843 0.86902952 0 100 0
22.574963 17.257317 -3.2039776 0 100 0
4.695673 17.883265 0.59040922 0 100 0
6.4145942 18.956253 -2.2909822 0 100 0
21.583778 18.014885 2.2569706 0 100 0
15.642336 20.445997 -2.1035357 0 100 0
12.449008 20.615625 1.5058873 0 100 0
21.449144 18.105448 1.6689154 0 100 0
27.573849 8.8551636 2.2095432 0 100 0
19.717497 19.130249 -2.6881714 0 100 0
19.365555 19.291515 2.9174061 0 100 0
23.026548 16.882568 -3.9650013 0 100 0
4.1054735 17.440619 3.6367521 0 100 0
14.209141 20.610428 2.8944516 0 100 0
4.6458673 17.848412 3.0842159 0 100 0
23.816006 16.105989 2.7544768 0 100 0
19.184832 19.369442 2.8479841 0 100 0
27.809422 5.1129928 -1.7119944 0 100 0
14.622177 20.578897 -0.58372658 0 100 0
11.814888 20.580402 -2.8813992 0 100 0
8.1920166 19.742146 -0.42008436 0 100 0
26.651686 11.796925 -0.7797929 0 100 0
26.460236 12.221584 2.3774354 0 100 0
6.2860107 18.882959 -2.8628387 0 100 0
24.469624 15.359451 -3.1042542 0 100 0
27.84267 5.964005 -0.33603263 0 100 0
22.688475 17.164644 0.33988026 0 100 0
7.119873 19.296179 -3.1367052 0 100 0
20.801411 18.538643 -1.4971715 0 100 0
4.2729521 17.582581 -2.0341756 0 100 0
27.824799 4.2649641 -1.4714534 0 100 0
9.1343288 20.064365 1.960018 0 100 0
18.330391 19.731239 3.2503541 0 100 0
26.504032 12.124434 -0.24117064 0 100 0
12.464793 20.616503 1.8963505 0 100 0
22.59741 17.238989 1.7187833 0 100 0
9.8630457 20.243105 -0.72547871 0 100 0
12.902506 20.640816 1.0859739 0 100 0
20.947371 18.44297 -1.95952 0 100 0
27.666155 8.2455559 -2.6140652 0 100 0
27.081192 10.664831 -2.3163984 0 100 0
27.838484 6.346252 0.91428339 0 100 0
27.573221 8.8577499 2.1267879 0 100 0
25.470345 14.01261 -3.6133988 0 100 0
27.445438 9.3833008 2.7698646 0 100 0
15.946553 20.391287 -4.3861809 0 100 0
3.4052792 16.847105 -1.0162832 0 100 0
10.943813 20.456856 1.1570046 0 100 0
5.4965067 18.432922 -0.80555582 0 100 0
27.602392 8.6792221 -2.4256642 0 100 0
27.832775 4.1159468 -0.90836817 0 100 0
19.447449 19.256205 -0.2328555 0 100 0
12.13275 20.598059 -3.4231484 0 100 0
10.002138 20.277222 -1.4061854 0 100 0
15.222382 20.500706 3.9109292 0 100 0
20.45396 18.728281 -0.9273814 0 100 0
22.541082 17.284977 -1.4749386 0 100 0
13.029263 20.647858 -2.7088382 0 100 0
23.981293 15.937923 1.8275487 0 100 0
18.358625 19.722054 -2.9081175 0 100 0
20.084709 18.929821 4.0904531 0 100 0
3.6077216 17.018703 -1.9019922 0 100 0
5.0525765 18.133034 1.201853 0 100 0
9.6764479 20.197338 3.5635996 0 100 0
12.621567 20.625212 0.50827008 0 100 0
21.953564 17.764622 -1.6376153 0 100 0
26.890793 11.218843 2.3674097 0 100 0
9.1161652 20.059912 1.21157 0 100 0
4.6039071 17.819046 3.2114067 0 100 0
3.6412785 17.04715 -0.79617864 0 100 0
27.8305 4.1584148 -0.7552681 0 100 0
25.456921 14.031876 0.57606363 0 100 0
14.218485 20.610083 3.8443198 0 100 0
23.347057 16.567287 -0.6844902 0 100 0
17.192043 20.101646 -3.3325162 0 100 0
21.429722 18.118513 4.1701398 0 100 0
21.894903 17.805603 -3.0718529 0 100 0
17.088232 20.133511 -1.9790015 0 100 0
15.616389 20.449377 -2.1615837 0 100 0
20.482811 18.712534 1.6596216 0 100 0
27.82686 6.5634255 0.032326329 0 100 0
17.078926 20.135612 2.4503286 0 100 0
20.826189 18.524481 3.3994265 0 100 0
24.29686 15.564104 0.61323488 0 100 0
3.3700943 16.81728 -3.0798795 0 100 0
27.820839 5.4052181 -0.1790432 0 100 0
3.223187 16.683876 3.861964 0 100 0
27.498043 9.1669445 1.787554 0 100 0
27.529081 9.0392904 -0.20168622 0 100 0
23.245148 16.667538 1.5227156 0 100 0
25.897978 13.301016 3.4490552 0 100 0
26.600801 11.909787 1.0223974 0 100 0
25.618849 13.793003 -2.2441118 0 100 0
25.794037 13.484225 -0.36277476 0 100 0
3.8590801 17.231766 3.8935099 0 100 0
27.808758 5.0959606 -1.7028743 0 100 0
5.1384344 18.193115 3.2062387 0 100 0
13.153488 20.649534 1.0306914 0 100 0
27.813225 5.2103 -0.66479951 0 100 0
2.5731633 16.020395 3.641845 0 100 0
21.25119 18.238602 1.340763 0 100 0
23.391233 16.523832 0.58994597 0 100 0
3.1765203 16.636244 3.058548 0 100 0
27.857855 3.6473024 -0.33040011 0 100 0
10.385102 20.371155 -0.20197988 0 100 0
11.455956 20.533216 -0.70960683 0 100 0
23.850088 16.072462 -3.8118536 0 100 0
5.0482264 18.129988 2.7954087 0 100 0
27.814117 5.2331738 1.5135019 0 100 0
22.521862 17.300667 0.27222994 0 100 0
24.806087 14.960874 3.8058803 0 100 0
7.926918 19.650438 -2.9590704 0 100 0
15.988612 20.381792 4.7334228 0 100 0
5.5145297 18.443199 2.9766588 0 100 0
27.842354 5.9559264 1.7102125 0 100 0
2.4207282 15.864805 -1.4177835 0 100 0
8.0405903 19.689762 -3.0344718 0 100 0
19.683435 19.148842 -4.3002582 0 100 0
2.8495905 16.302546 1.8188422 0 100 0
17.182819 20.104647 -3.421679 0 100 0
19.686022 19.14743 2.5313902 0 100 0
7.4748483 19.457077 -2.0681305 0 100 0
3.3675005 16.815083 0.19676901 0 100 0
3.9293876 17.291361 3.8296599 0 100 0
27.81498 5.2552605 -2.0294611 0 100 0
26.66906 11.75838 -3.1504536 0 100 0
21.377668 18.153524 0.28813848 0 100 0
16.017548 20.375257 -4.2203417 0 100 0
20.970406 18.427477 3.9440982 0 100 0
6.8006825 19.151499 1.7686538 0 100 0
5.2874131 18.297375 0.37793064 0 100 0
3.1618662 16.621284 2.9983506 0 100 0
22.085955 17.65654 1.2546456 0 100 0
3.1974158 16.65757 -2.2626059 0 100 0
4.325531 17.624233 -1.780845 0 100 0
4.5246062 17.76355 0.075207099 0 100 0
12.39963 20.612883 1.2927061 0 100 0
16.068453 20.363766 0.40550709 0 100 0
20.639631 18.626942 -1.4388077 0 100 0
22.349558 17.441334 2.3387105 0 100 0
15.043789 20.523973 -2.6724033 0 100 0
18.334938 19.729761 -4.2093263 0 100 0
6.4621296 18.983351 1.1160266 0 100 0
26.41766 12.316015 -3.0656016 0 100 0
22.388811 17.409286 2.9205287 0 100 0
21.308411 18.200111 2.7349243 0 100 0
24.31995 15.536749 -0.093930505 0 100 0
5.7828417 18.59614 -3.4858532 0 100 0
15.704412 20.437912 2.9805999 0 100 0
21.684385 17.947212 -1.3215643 0 100 0
8.9374008 20 -2.5204155 0 100 0
24.981125 14.714695 -2.4266844 0 100 0
16.425711 20.283098 -2.8240323 0 100 0
12.712708 20.630274 -0.43078795 0 100 0
17.035614 20.145391 -2.2121527 0 100 0
25.002989 14.683321 3.7342458 0 100 0
6.6115398 19.065767 3.2013779 0 100 0
9.5527534 20.166996 -2.1882606 0 100 0
14.330535 20.60593 2.409044 0 100 0
9.4894485 20.15147 -2.4194248 0 100 0
27.798002 4.7656279 -0.26524749 0 100 0
24.53021 15.28768 -1.7782434 0 100 0
18.072842 19.815044 -3.6304522 0 100 0
27.701626 8.0043297 0.29582873 0 100 0
3.7996519 17.181393 -2.022527 0 100 0
27.820492 5.3963261 -1.2139649 0 100 0
24.136841 15.753661 3.3055081 0 100 0
24.821201 14.942972 -2.5486839 0 100 0
13.849081 20.623768 -0.57981414 0 100 0
7.588192 19.508451 -0.14990512 0 100 0
26.393311 12.370032 -3.197715 0 100 0
24.029713 15.880564 2.2133777 0 100 0
13.275264 20.645025 -3.6074085 0 100 0
26.46257 12.216401 -1.9034523 0 100 0
27.827974 5.5878139 1.082685 0 100 0
17.939552 19.858414 -1.2660917 0 100 0
27.80512 6.9696546 -2.0463221 0 100 0
4.9992275 18.095697 3.2215395 0 100 0
4.4642463 17.721306 2.5935109 0 100 0
12.295468 20.607096 -1.9127823 0 100 0
13.645052 20.631325 -3.1685925 0 100 0
16.049366 20.368074 -1.8943151 0 100 0
11.267071 20.505054 2.0413284 0 100 0
15.032244 20.525478 -1.4039146 0 100 0
27.842278 2.7544718 -0.18818104 0 100 0
20.65344 18.619406 -0.54870391 0 100 0
26.9417 11.070711 -2.1861939 0 100 0
4.1778626 17.501978 -3.9225457 0 100 0
14.597033 20.582172 -1.0703675 0 100 0
8.6547356 19.902216 -2.7652142 0 100 0
24.128805 15.76318 3.6450825 0 100 0
27.851376 3.7683833 1.2739235 0 100 0
22.565653 17.264919 0.42352134 0 100 0
9.4988508 20.153776 -2.4530113 0 100 0
21.078421 18.354818 3.660552 0 100 0
27.69047 8.0801907 -0.23061691 0 100 0
2.8043866 16.256405 3.8561537 0 100 0
25.238316 14.3456 -0.1149871 0 100 0
25.364691 14.164242 0.51696265 0 100 0
16.580956 20.248047 -2.1585805 0 100 0
27.429642 9.4482784 0.80991369 0 100 0
27.842047 3.9426584 -0.91488105 0 100 0
16.485558 20.269587 -0.031260062 0 100 0
20.488031 18.709686 -4.0524879 0 100 0
9.6015167 20.178957 -3.5301323 0 100 0
14.725816 20.565397 0.17331231 0 100 0
18.618525 19.613628 0.58430403 0 100 0
19.927454 19.015654 2.99348 0 100 0
21.437241 18.113455 2.8786843 0 100 0
26.159813 12.839504 -3.3391728 0 100 0
14.392426 20.60364 0.25425303 0 100 0
23.567505 16.350439 1.7666613 0 100 0
9.8824549 20.247864 -3.6313701 0 100 0
9.8682146 20.244373 1.4710989 0 100 0
6.369319 18.930445 -3.0849361 0 100 0
27.15239 10.457665 -2.240006 0 100 0
2.4216344 15.865729 -0.86987108 0 100 0
16.289612 20.313829 -2.1049027 0 100 0
7.1612673 19.314941 -0.33911255 0 100 0
19.925547 19.016693 0.29213777 0 100 0
27.443409 9.3916531 0.33655167 0 100 0
27.006193 10.883062 -2.0049839 0 100 0
16.248043 20.323215 1.4053885 0 100 0
12.418024 20.613905 -2.7038414 0 100 0
23.56337 16.354502 2.0992734 0 100 0
10.158235 20.315508 -1.1061615 0 100 0
26.621746 11.863331 0.59297526 0 100 0
18.432598 19.6938 1.1657313 0 100 0
3.9017162 17.267906 3.5628085 0 100 0
8.2779999 19.771891 2.9011405 0 100 0
16.836266 20.190401 -1.7084448 0 100 0
20.878054 18.489595 -3.0634849 0 100 0
23.07493 16.834976 0.19083662 0 100 0
7.1173735 19.295044 -3.9040542 0 100 0
19.587482 19.195824 3.8417773 0 100 0
5.0967379 18.163937 -2.9804626 0 100 0
8.7143812 19.92285 -3.7730222 0 100 0
14.930544 20.538725 4.0606565 0 100 0
12.386055 20.612129 -1.4546454 0 100 0
18.033182 19.82795 1.1470655 0 100 0
25.610674 13.807417 -2.1268728 0 100 0
19.080002 19.414646 2.1108 0 100 0
17.935131 19.859852 -2.5128431 0 100 0
26.317991 12.537101 -2.7941308 0 100 0
26.288006 12.603607 1.9452819 0 100 0
22.498566 17.319687 -0.60863113 0 100 0
4.9058328 18.030338 1.0492345 0 100 0
9.0886345 20.052317 2.9611166 0 100 0
16.039429 20.370317 -1.9666648 0 100 0
27.228851 10.23517 -2.0822947 0 100 0
5.4260311 18.39275 -3.1101913 0 100 0
5.3914356 18.370174 -2.3260164 0 100 0
21.597885 18.005394 2.1502745 0 100 0
8.6075821 19.885902 -2.7147858 0 100 0
5.2990065 18.305489 -2.1326194 0 100 0
2.6010954 16.048906 2.8888481 0 100 0
9.1197624 20.060793 0.84475935 0 100 0
19.640892 19.172062 2.2969508 0 100 0
18.966764 19.46347 3.2127068 0 100 0
9.8662376 20.243889 -0.62063831 0 100 0
26.874029 11.267621 -2.2474573 0 100 0
26.72998 11.623249 0.11339623 0 100 0
25.724751 13.606344 -1.5587491 0 100 0
14.947573 20.536507 4.1981034 0 100 0
27.182228 10.370839 -1.8752069 0 100 0
23.437193 16.478624 -1.5219992 0 100 0
27.812372 6.8341494 1.1715226 0 100 0
26.893637 11.210573 1.7850192 0 100 0
26.931133 11.101463 -2.7912598 0 100 0
8.4179106 19.82029 3.8933282 0 100 0
15.945546 20.391516 -1.2367166 0 100 0
11.152426 20.487961 1.7109179 0 100 0
11.955894 20.588232 2.8454347 0 100 0
3.0337636 16.490532 -3.2549758 0 100 0
8.0569706 19.695429 -0.06079372 0 100 0
23.77282 16.14847 -1.396194 0 100 0
6.3214288 18.903147 -1.6288247 0 100 0
21.318115 18.193584 3.5850224 0 100 0
15.037807 20.52475 0.90600723 0 100 0
26.961742 11.012401 1.4845264 0 100 0
27.277027 10.075972 -0.41051471 0 100 0
19.824398 19.071903 1.7907422 0 100 0
2.8869808 16.340708 -2.4062603 0 100 0
26.414808 12.322344 1.8504514 0 100 0
10.30374 20.351198 -2.8827293 0 100 0
12.311895 20.608009 1.2121302 0 100 0
5.1274695 18.185444 0.27059069 0 100 0
26.129379 12.89315 2.4189758 0 100 0
3.45872 16.892403 -3.9018719 0 100 0
14.062972 20.615845 -2.1241624 0 100 0
27.832853 6.4514322 -1.3677335 0 100 0
22.993649 16.914934 -0.44993123 0 100 0
15.70616 20.437681 -4.3905416 0 100 0
27.229212 10.234133 1.0043192 0 100 0
19.284208 19.326591 4.4089093 0 100 0
9.942668 20.262634 2.9969339 0 100 0
23.479862 16.436649 -0.83542353 0 100 0
25.347113 14.189466 -2.146663 0 100 0
15.052934 20.522781 -0.77483314 0 100 0
15.579733 20.454153 -1.4844315 0 100 0
2.9000874 16.354088 -0.82411796 0 100 0
22.386917 17.410835 0.66126484 0 100 0
21.267717 18.227486 3.241339 0 100 0
10.119328 20.305965 -1.3437614 0 100 0
17.482498 20.007135 0.46104643 0 100 0
21.059141 18.367785 -1.8494709 0 100 0
9.418664 20.134109 -0.2064828 0 100 0
18.967398 19.463198 -2.1009078 0 100 0
5.3449821 18.337664 -2.2694521 0 100 0
14.01453 20.617638 -2.0826504 0 100 0
7.0900946 19.282681 -3.1284392 0 100 0
16.079659 20.361233 -1.5377761 0 100 0
23.618036 16.300728 1.2667183 0 100 0
27.866961 3.4771767 0.98738146 0 100 0
5.7156286 18.557829 3.6726213 0 100 0
14.789907 20.557047 1.1895003 0 100 0
3.5743482 16.990416 1.5717238 0 100 0
10.403685 20.375711 -1.7108176 0 100 0
24.74514 15.033075 3.2006817 0 100 0
21.33901 18.179529 0.83090711 0 100 0
7.8896475 19.637547 2.8114436 0 100 0
17.232622 20.08844 -0.13124943 0 100 0
4.0126119 17.361906 0.49761385 0 100 0
15.219217 20.501118 -1.2610681 0 100 0
13.054748 20.649275 -0.45047313 0 100 0
15.277439 20.493532 -4.3388438 0 100 0
27.315056 9.9195576 -1.1351907 0 100 0
16.799833 20.198627 2.3651743 0 100 0
27.5401 8.9939747 -1.7811626 0 100 0
20.756517 18.563145 -1.0325497 0 100 0
26.852436 11.330457 -0.7980687 0 100 0
25.13658 14.491603 2.839263 0 100 0
2.6974223 16.147228 -1.5693296 0 100 0
6.6476564 19.082138 -0.048661347 0 100 0
17.796223 19.905052 -0.11470594 0 100 0
16.310192 20.309183 -3.6344714 0 100 0
22.653963 17.19282 -2.3301246 0 100 0
14.182586 20.611412 -3.8245637 0 100 0
2.875519 16.32901 1.5466714 0 100 0
25.931437 13.242043 -0.76628381 0 100 0
27.815754 5.2750316 1.5520685 0 100 0
24.836578 14.922136 -1.3745276 0 100 0
19.824299 19.071957 -1.009833 0 100 0
3.5087004 16.934769 1.2876934 0 100 0
10.522581 20.394051 -3.1347868 0 100 0
11.98876 20.590061 -1.104257 0 100 0
20.736464 18.574089 1.1414995 0 100 0
7.0072236 19.245117 0.44581795 0 100 0
11.227118 20.499096 3.5657878 0 100 0
23.03166 16.877542 0.40569314 0 100 0
27.86586 3.3581939 -0.89547408 0 100 0
14.858727 20.54808 -4.007288 0 100 0
13.581764 20.633669 0.75939709 0 100 0
27.834625 6.4183607 -1.4577085 0 100 0
18.948389 19.471394 1.5614744 0 100 0
16.656235 20.23105 -1.7975752 0 100 0
3.9409876 17.301193 -2.4998133 0 100 0
9.4081135 20.131519 2.3195596 0 100 0
18.324577 19.733131 0.30851516 0 100 0
23.016781 16.892179 3.2233748 0 100 0
15.747456 20.432301 -1.0463839 0 100 0
15.879485 20.406433 0.81861043 0 100 0
22.327402 17.459423 -4.1567392 0 100 0
27.835846 2.5898666 0.7324509 0 100 0
22.928707 16.968521 0.022780359 0 100 0
5.3719873 18.356562 -1.8008918 0 100 0
24.251537 15.617794 1.102999 0 100 0
10.003457 20.277544 0.42224747 0 100 0
27.825783 6.5836034 2.3159893 0 100 0
27.516224 9.0921707 0.86881721 0 100 0
26.937004 11.084385 0.67066348 0 100 0
26.594637 11.923468 -2.019906 0 100 0
19.576139 19.200714 2.1901915 0 100 0
20.306046 18.809017 -2.6297789 0 100 0
27.836275 6.3875628 0.41514343 0 100 0
27.840317 6.3120646 2.0923853 0 100 0
27.290907 10.018893 -2.4004567 0 100 0
13.2339 20.646555 -0.45402563 0 100 0
17.133131 20.120815 -0.18788099 0 100 0
20.764261 18.558918 2.3227482 0 100 0
13.430638 20.639269 2.4923081 0 100 0
25.915722 13.269737 1.0983783 0 100 0
11.899332 20.585093 -1.0918216 0 100 0
8.0493422 19.692789 3.8283784 0 100 0
17.355459 20.048471 4.6260748 0 100 0
23.687962 16.231945 -0.24416885 0 100 0
7.7148075 19.565842 1.4818048 0 100 0
4.3798189 17.662222 -3.3413961 0 100 0
20.864645 18.498615 2.253679 0 100 0
10.616054 20.407986 3.1132686 0 100 0
25.360226 14.170647 1.9063025 0 100 0
18.152157 19.789234 4.4136252 0 100 0
27.459913 9.3237705 -2.3200364 0 100 0
21.601748 18.002796 -0.2919119 0 100 0
21.863327 17.826843 3.4035902 0 100 0
22.520103 17.302101 -1.3354574 0 100 0
24.06638 15.837127 -3.3007014 0 100 0
20.863096 18.499659 -0.38970441 0 100 0
18.669571 19.591618 -4.4865651 0 100 0
16.998571 20.153755 0.61536038 0 100 0
10.824712 20.439098 3.3857615 0 100 0
27.473999 9.2658386 2.6971419 0 100 0
6.4554205 18.979525 -3.3021634 0 100 0
17.984562 19.843769 0.64875311 0 100 0
20.291542 18.816931 2.6024168 0 100 0
11.790228 20.579033 3.9137979 0 100 0
23.035675 16.873592 3.1276858 0 100 0
20.239967 18.845081 -4.3524394 0 100 0
11.25737 20.503605 -1.8909192 0 100 0
11.41713 20.527428 2.9819517 0 100 0
8.5803471 19.876484 0.52201468 0 100 0
15.006699 20.528805 -1.1761668 0 100 0
21.288223 18.213692 -1.4321073 0 100 0
8.0785122 19.702879 -0.10625932 0 100 0
13.717573 20.628639 1.3302354 0 100 0
21.247854 18.240849 -2.7488959 0 100 0
21.056438 18.369602 -4.2092891 0 100 0
20.041477 18.953419 -0.63731521 0 100 0
19.209383 19.358856 -0.25672171 0 100 0
4.9826078 18.084066 1.1192499 0 100 0
20.836309 18.517675 -0.32611048 0 100 0
25.463995 14.021728 2.3341637 0 100 0
6.4028459 18.949556 0.65816808 0 100 0
20.119198 18.910997 4.2538252 0 100 0
23.626375 16.292526 2.5152159 0 100 0
6.3770294 18.934841 -3.2270384 0 100 0
17.474541 20.009724 3.9780953 0 100 0
18.792904 19.538439 1.0038414 0 100 0
26.779846 11.512648 -0.60836142 0 100 0
27.494936 9.1797218 0.94741404 0 100 0
9.3509932 20.11751 -2.0143661 0 100 0
3.8245397 17.202488 3.7123287 0 100 0
13.892414 20.622162 0.22362719 0 100 0
9.0464487 20.037724 -3.8799229 0 100 0
5.2062063 18.240545 -1.3633106 0 100 0
20.91713 18.463312 3.5853424 0 100 0
5.652669 18.52194 -1.4676154 0 100 0
11.673956 20.565722 0.48904443 0 100 0
23.192989 16.718843 2.5365009 0 100 0
21.640547 17.976698 -2.143708 0 100 0
12.055011 20.59374 3.3980434 0 100 0
3.7423413 17.132814 -2.3567295 0 100 0
7.7202702 19.568317 -2.2727952 0 100 0
9.2353592 20.089146 2.2208443 0 100 0
17.967566 19.849298 2.7806191 0 100 0
10.738384 20.426224 0.6002093 0 100 0
8.010705 19.679424 -1.484933 0 100 0
26.44125 12.263698 1.5006713 0 100 0
25.490017 13.98438 1.937396 0 100 0
19.489649 19.23801 -0.82766366 0 100 0
7.652494 19.537598 2.6913495 0 100 0
12.820194 20.636246 2.7389226 0 100 0
24.901665 14.828735 -2.0837748 0 100 0
20.60737 18.644548 1.8890426 0 100 0
17.016989 20.149597 -3.0775974 0 100 0
27.868805 3.4426813 -0.51050425 0 100 0
13.65718 20.630877 3.0647957 0 100 0
4.428443 17.696251 -2.3069663 0 100 0
22.508572 17.311518 3.9830556 0 100 0
27.778673 7.4637861 -2.0957947 0 100 0
25.730045 13.597009 2.9651866 0 100 0
18.767929 19.549208 -1.0841988 0 100 0
5.3824472 18.363882 3.244374 0 100 0
27.830013 5.6400175 -0.86607867 0 100 0
9.4272242 20.136208 3.6482153 0 100 0
4.4997272 17.746138 0.14360319 0 100 0
5.2876387 18.297533 -1.8628547 0 100 0
13.79408 20.625805 3.0830469 0 100 0
8.0329561 19.687122 0.87956768 0 100 0
12.837679 20.637217 -3.5071621 0 100 0
11.267148 20.505066 1.2164495 0 100 0
17.424824 20.025902 -1.852787 0 100 0
27.629301 8.4962158 -1.298156 0 100 0
25.20816 14.388879 0.7597605 0 100 0
12.344767 20.609837 -2.7403593 0 100 0
2.8495464 16.302498 1.4274147 0 100 0
8.0568647 19.695393 -3.0518653 0 100 0
2.9168711 16.37122 -3.3049672 0 100 0
12.269422 20.60565 1.2438124 0 100 0
27.392914 9.5993404 1.4463184 0 100 0
9.4936886 20.15251 3.2713869 0 100 0
19.760206 19.106939 2.8591771 0 100 0
8.5562038 19.86813 -2.8983626 0 100 0
26.850695 11.33552 -1.3771347 0 100 0
6.2459307 18.860111 2.1609576 0 100 0
17.852316 19.886799 3.1042254 0 100 0
27.437349 9.4165726 0.95717025 0 100 0
23.662909 16.256586 1.7214142 0 100 0
27.830135 2.4437325 0.90573013 0 100 0
15.848228 20.413488 4.5195646 0 100 0
27.834827 4.0775509 1.5389891 0 100 0
16.635984 20.235624 -2.1327105 0 100 0
11.556216 20.548164 3.8857419 0 100 0
23.603693 16.314835 -1.2286795 0 100 0
19.609447 19.186352 3.9311609 0 100 0
6.1132579 18.784485 2.6809378 0 100 0
20.400467 18.757479 2.1528866 0 100 0
27.849075 6.1279879 -0.68289095 0 100 0
21.176395 18.288914 0.10460054 0 100 0
25.563211 13.879337 -2.8383541 0 100 0
24.402765 15.438652 -0.89915019 0 100 0
25.496275 13.975399 -3.7474048 0 100 0
15.038001 20.524727 -0.40052626 0 100 0
17.022926 20.148254 0.17508785 0 100 0
25.33124 14.212246 0.16488911 0 100 0
22.644115 17.200859 -2.2499959 0 100 0
4.8911972 18.020096 -3.930737 0 100 0
10.909742 20.451775 0.19886246 0 100 0
10.266809 20.342138 1.2535751 0 100 0
12.894794 20.640388 1.5832283 0 100 0
15.330614 20.486607 -3.9495862 0 100 0
23.123346 16.787352 0.28380781 0 100 0
26.681591 11.730591 -2.0824757 0 100 0
27.847143 2.8791175 -0.49012017 0 100 0
2.5503614 15.997122 3.8058586 0 100 0
5.2225084 18.251953 -2.5322688 0 100 0
23.050194 16.85931 -2.2019663 0 100 0
23.706181 16.214024 -0.25168952 0 100 0
26.183918 12.797022 -0.61833692 0 100 0
3.0119257 16.468241 3.1131568 0 100 0
26.692741 11.705858 -1.5069618 0 100 0
7.6433072 19.533432 2.2464774 0 100 0
19.219685 19.354416 -4.2546492 0 100 0
6.1446543 18.802383 -3.886817 0 100 0
23.817486 16.104532 -2.9207494 0 100 0
24.801567 14.966232 -1.9911343 0 100 0
15.350379 20.484032 1.4595742 0 100 0
11.701052 20.569759 0.95558697 0 100 0
14.327425 20.606049 1.724972 0 100 0
9.9833403 20.27261 -1.5409172 0 100 0
22.83683 17.043528 2.568532 0 100 0
15.318583 20.488174 -0.17866205 0 100 0
5.6695514 18.531563 -3.0962677 0 100 0
11.457526 20.533451 3.4425387 0 100 0
12.294602 20.60705 1.9187524 0 100 0
27.859552 3.6155982 0.64514852 0 100 0
27.733473 7.7877235 0.72292 0 100 0
9.4608536 20.144455 0.70814818 0 100 0
8.9194603 19.993793 -1.4882171 0 100 0
3.9528384 17.311237 0.97130996 0 100 0
7.441371 19.441902 -2.3944592 0 100 0
27.293112 10.009818 -2.9008791 0 100 0
27.779167 7.4545469 -2.3632221 0 100 0
7.150075 19.309868 -0.28554192 0 100 0
19.57225 19.202393 -1.2520351 0 100 0
3.8748941 17.245169 2.5579815 0 100 0
27.406307 9.5442524 -0.80324847 0 100 0
22.327175 17.459608 2.1388488 0 100 0
3.4539678 16.888376 -3.3176124 0 100 0
26.894562 11.207876 -3.2073526 0 100 0
5.6861768 18.541039 0.79445648 0 100 0
23.169096 16.742344 0.36990532 0 100 0
24.746456 15.031515 -3.7660768 0 100 0
24.955704 14.751181 -0.9398576 0 100 0
27.474518 9.2637005 -0.49403933 0 100 0
26.369186 12.42354 -2.3532164 0 100 0
11.005772 20.466093 -2.951395 0 100 0
22.461086 17.350285 -4.0321412 0 100 0
9.8369522 20.236706 -0.096253403 0 100 0
15.217326 20.501366 -4.6953921 0 100 0
13.85774 20.623447 3.3369951 0 100 0
26.744617 11.590786 -3.1866007 0 100 0
7.1181574 19.295399 -2.7174897 0 100 0
17.95253 19.854193 -2.8930125 0 100 0
4.8574076 17.996449 -0.55055737 0 100 0
11.734777 20.574789 -2.0894229 0 100 0
3.5479448 16.968035 1.7539618 0 100 0
14.486887 20.596523 -1.7658186 0 100 0
16.383724 20.29258 0.80233735 0 100 0
17.693377 19.938519 1.9734633 0 100 0
19.710857 19.133873 -1.3782836 0 100 0
26.181707 12.800915 0.50782633 0 100 0
6.7478447 19.12755 -0.92128325 0 100 0
17.553553 19.984015 4.0610313 0 100 0
2.6643021 16.113422 1.860281 0 100 0
9.3545437 20.118382 3.0808794 0 100 0
9.2276211 20.08725 -0.1720131 0 100 0
26.970411 10.987173 -0.92716867 0 100 0
25.000978 14.68621 3.4635181 0 100 0
4.0793242 17.418451 -2.5386729 0 100 0
18.676672 19.588558 3.2529464 0 100 0
14.141574 20.61293 1.5244216 0 100 0
10.31073 20.352913 -3.4322512 0 100 0
27.08411 10.656338 2.2057652 0 100 0
3.8120234 17.191879 -0.38542545 0 100 0
21.606812 17.99939 0.40418926 0 100 0
14.719057 20.566275 4.2288141 0 100 0
24.299517 15.560956 -1.7585832 0 100 0
7.2756581 19.366791 2.9119339 0 100 0
2.5378246 15.984325 2.0311601 0 100 0
22.063984 17.674475 -0.69452924 0 100 0
15.078015 20.519514 0.94243068 0 100 0
5.7647457 18.585827 -3.4577718 0 100 0
27.842337 3.9372683 0.98538315 0 100 0
16.992378 20.155153 1.5039725 0 100 0
21.06809 18.361767 1.0192026 0 100 0
24.384159 15.460691 1.1571747 0 100 0
27.07729 10.676188 1.5061063 0 100 0
15.380764 20.480072 2.841074 0 100 0
25.530581 13.92617 2.7721601 0 100 0
17.959024 19.852081 -4.2667718 0 100 0
3.5555117 16.974449 1.9111171 0 100 0
13.871342 20.622942 1.0415273 0 100 0
18.252855 19.756468 1.2933075 0 100 0
2.5270557 15.973333 -0.71309185 0 100 0
27.353689 9.7606678 1.761935 0 100 0
15.109113 20.515461 3.8409719 0 100 0
25.75301 13.556538 -1.4116184 0 100 0
27.156349 10.446146 0.41503948 0 100 0
16.104006 20.355736 2.4499931 0 100 0
19.88645 19.038034 -4.3155937 0 100 0
24.970383 14.730116 0.54518163 0 100 0
14.999437 20.529751 4.391325 0 100 0
24.679516 15.110813 -0.7193073 0 100 0
20.840633 18.514767 -4.2088027 0 100 0
4.0704269 17.410912 -1.1567515 0 100 0
24.485428 15.340731 -3.3748095 0 100 0
3.188663 16.648636 -3.261205 0 100 0
22.428076 17.377232 -2.3915021 0 100 0
26.006289 13.110108 -0.032597613 0 100 0
18.285975 19.745691 -0.27090299 0 100 0
12.147773 20.598892 3.3700278 0 100 0
24.924957 14.795303 0.84322309 0 100 0
27.464973 9.3029556 1.3211939 0 100 0
24.193699 15.686306 1.5211929 0 100 0
24.493868 15.330732 -2.6709332 0 100 0
18.237379 19.761505 -3.0455847 0 100 0
24.745529 15.032615 2.3903623 0 100 0
14.766026 20.560158 3.3990474 0 100 0
26.661514 11.77512 0.36728132 0 100 0
26.974701 10.974689 -0.09916047 0 100 0
27.749802 7.6766844 -1.2217586 0 100 0
5.3699217 18.355118 -2.1315839 0 100 0
24.746025 15.032026 -2.7440038 0 100 0
12.082679 20.595276 3.1724944 0 100 0
27.627199 8.5104971 -1.4859687 0 100 0
14.414289 20.602829 2.8635235 0 100 0
4.5562558 17.785698 3.3931589 0 100 0
27.686783 8.105278 -2.6824296 0 100 0
22.909611 16.98411 3.4475198 0 100 0
26.166679 12.827404 -0.68226081 0 100 0
27.223824 10.249804 1.2225952 0 100 0
23.388544 16.526478 -2.2277853 0 100 0
21.068394 18.361563 -2.5143194 0 100 0
13.93987 20.620405 1.5434171 0 100 0
20.746946 18.568367 -1.2381581 0 100 0
10.862944 20.444799 -0.62248319 0 100 0
7.1938238 19.329697 3.5841174 0 100 0
12.654441 20.627037 3.1620409 0 100 0
13.715256 20.628725 2.2529001 0 100 0
3.8388498 17.214617 1.2238092 0 100 0
27.704042 7.9878907 -0.42594168 0 100 0
9.7190609 20.207788 -0.256322 0 100 0
25.748392 13.564679 2.592272 0 100 0
19.4667 19.247906 -2.8901324 0 100 0
6.1722031 18.818085 1.7657232 0 100 0
14.504377 20.594244 -1.2089101 0 100 0
23.382229 16.532688 0.44582564 0 100 0
26.486917 12.1624 1.2891053 0 100 0
8.3786736 19.806717 2.2875867 0 100 0
22.083925 17.658194 0.1106592 0 100 0
3.0715985 16.529148 -0.97376812 0 100 0
8.6122742 19.887527 3.8231955 0 100 0
13.155828 20.649448 -3.6955743 0 100 0
4.9221735 18.041775 0.56973517 0 100 0
26.390467 12.376338 -3.3550181 0 100 0
17.001804 20.153025 -4.7087259 0 100 0
11.050214 20.472721 2.6929505 0 100 0
18.415442 19.701197 -3.2665222 0 100 0
27.819122 2.1617925 -0.17659453 0 100 0
15.819996 20.419863 -2.9328978 0 100 0
20.410681 18.751905 4.1497164 0 100 0
