# .PCD v0.7 - Point Cloud Data file format
VERSION 0.7
FIELDS x y z rgb
SIZE 4 4 4 4
TYPE F F F F
COUNT 1 1 1 1
WIDTH 1030
HEIGHT 1
VIEWPOINT 0 0 0 1 0 0 0
POINTS 1030
DATA ascii
0.58046991 14.822048 -0.8727771 9.1835496e-39
-1.034729 14.024916 0.16709717 9.1835496e-39
1.0473926 11.269441 0.039914139 9.1835496e-39
0.8413527 16.801432 0.62542999 9.1835496e-39
-0.21093521 10.624692 -1.0268451 9.1835496e-39
1.0480685 18.537367 0.018402552 9.1835496e-39
-0.30271587 18.751078 -1.0035205 9.1835496e-39
0.891518 17.056097 0.55155122 9.1835496e-39
-0.55239493 16.745785 0.89101911 9.1835496e-39
-0.67847651 20.178238 -0.79914153 9.1835496e-39
0.30607286 11.756897 1.0025452 9.1835496e-39
0.21512587 15.794615 -1.0259085 9.1835496e-39
0.058959205 17.639605 1.0467941 9.1835496e-39
0.92948902 18.80094 -0.48447871 9.1835496e-39
-0.16519882 14.857761 -1.0350296 9.1835496e-39
0.21426229 16.897919 -1.0261015 9.1835496e-39
1.0343434 10.357986 -0.16953133 9.1835496e-39
0.61958796 17.527094 0.84588414 9.1835496e-39
0.22182441 14.993146 -1.0244111 9.1835496e-39
-1.0006313 11.987539 0.31266049 9.1835496e-39
-1.0204864 17.211895 0.23938303 9.1835496e-39
0.51429385 12.35939 -0.91355199 9.1835496e-39
-1.0468551 18.355478 0.05701961 9.1835496e-39
-0.75279719 12.497077 0.72948176 9.1835496e-39
-1.0034628 18.511902 -0.30291504 9.1835496e-39
1.0085998 13.124659 0.28523323 9.1835496e-39
0.035210192 11.841028 -1.0475404 9.1835496e-39
0.35436821 19.40296 -0.98640716 9.1835496e-39
-0.74215871 12.894407 -0.74012029 9.1835496e-39
0.48986393 10.903017 0.92674506 9.1835496e-39
-0.47939637 17.757975 -0.9320786 9.1835496e-39
1.041862 18.799721 -0.11573151 9.1835496e-39
-0.95983982 18.778816 -0.42108262 9.1835496e-39
-0.9278838 17.475403 0.48762906 9.1835496e-39
-0.53988385 20.046322 -0.89841819 9.1835496e-39
1.0479637 14.223844 0.021739643 9.1835496e-39
-0.95593715 19.758419 0.43010122 9.1835496e-39
-0.43084425 16.474903 -0.95561552 9.1835496e-39
0.4250927 19.629248 -0.95810449 9.1835496e-39
0.38759857 10.358236 0.97432959 9.1835496e-39
-0.90719533 18.051975 0.52504253 9.1835496e-39
-0.21244571 16.913504 -1.0265074 9.1835496e-39
0.74823719 12.329942 -0.73404175 9.1835496e-39
0.73644936 18.418652 0.74582958 9.1835496e-39
-0.85100186 17.631321 0.61251116 9.1835496e-39
-0.95817477 14.726341 0.42493027 9.1835496e-39
1.0464685 15.61552 -0.066999696 9.1835496e-39
1.0085135 18.929783 0.28553033 9.1835496e-39
0.055860054 10.133118 -1.0468915 9.1835496e-39
0.83753908 10.144744 -0.6303463 9.1835496e-39
0.9152137 17.750925 -0.51148421 9.1835496e-39
-0.29804951 17.90888 1.0048763 9.1835496e-39
0.70323378 15.80617 -0.77731502 9.1835496e-39
0.78499579 18.510656 0.69452167 9.1835496e-39
-0.94789612 19.737001 0.44835269 9.1835496e-39
-0.56454289 17.284468 0.88360107 9.1835496e-39
0.85653549 15.630781 -0.60436875 9.1835496e-39
0.69860613 11.380061 -0.78139484 9.1835496e-39
1.0227575 16.204105 0.22922187 9.1835496e-39
1.0140699 18.760452 0.26640496 9.1835496e-39
1.001307 12.434299 0.31033546 9.1835496e-39
-0.097608119 13.192699 -1.043575 9.1835496e-39
0.89033234 12.621843 0.5535562 9.1835496e-39
-0.41480118 16.64436 -0.96255797 9.1835496e-39
0.99072224 18.050817 -0.34238252 9.1835496e-39
-1.000072 12.03382 -0.31458563 9.1835496e-39
-1.0409892 10.449105 0.12496521 9.1835496e-39
0.37908328 12.924075 0.97750914 9.1835496e-39
-0.71659166 17.037237 0.76553857 9.1835496e-39
0.40205544 10.195641 -0.96807361 9.1835496e-39
-0.20687664 20.111441 -1.0277523 9.1835496e-39
-1.0479534 18.094324 0.022070115 9.1835496e-39
0.72680014 12.768295 -0.75547874 9.1835496e-39
-0.26577556 13.706869 -1.0142528 9.1835496e-39
0.70403624 14.938264 0.77660763 9.1835496e-39
-0.99625438 11.299734 -0.32701653 9.1835496e-39
-0.83924794 15.034775 0.62814337 9.1835496e-39
-0.60158056 13.344315 -0.85843027 9.1835496e-39
-0.68969262 15.944108 0.78925318 9.1835496e-39
-0.27780527 11.575794 1.0107577 9.1835496e-39
-0.47329831 12.292389 0.93518567 9.1835496e-39
-0.80593592 10.348303 0.67076981 9.1835496e-39
0.12797692 17.838087 -1.0407045 9.1835496e-39
-0.5928334 18.388071 0.86437494 9.1835496e-39
0.074853823 16.627983 1.0457261 9.1835496e-39
0.70526981 14.396282 -0.77552009 9.1835496e-39
-0.93270493 19.404644 -0.47816715 9.1835496e-39
-0.14195305 16.553036 1.0387113 9.1835496e-39
0.39193559 14.40377 -0.97245288 9.1835496e-39
0.089143425 13.787383 1.0443753 9.1835496e-39
-0.86101484 11.655238 -0.59777755 9.1835496e-39
0.898902 11.356518 -0.53906572 9.1835496e-39
0.95916766 19.115082 -0.42263591 9.1835496e-39
0.0059697707 13.294413 -1.0484593 9.1835496e-39
1.0055679 15.006829 0.29566887 9.1835496e-39
0.12890767 18.087669 -1.0406164 9.1835496e-39
-1.0201645 13.995403 0.24082306 9.1835496e-39
-0.80627751 14.350712 -0.67038226 9.1835496e-39
-0.87701696 16.130669 0.57423127 9.1835496e-39
0.1876637 12.753498 1.0314715 9.1835496e-39
0.66844916 17.720478 -0.80798173 9.1835496e-39
0.9923076 16.024694 0.33797917 9.1835496e-39
-0.21782029 18.388824 1.0253061 9.1835496e-39
-0.95050079 19.738264 0.44266373 9.1835496e-39
0.25083083 19.060987 1.0179274 9.1835496e-39
-0.024163323 19.98946 -1.0478876 9.1835496e-39
-0.86148489 15.400072 -0.59708595 9.1835496e-39
0.62573189 19.180771 0.84111845 9.1835496e-39
0.97425926 18.100977 0.38776097 9.1835496e-39
-0.31585398 15.58216 -0.99970353 9.1835496e-39
-0.69726962 11.959297 0.78257316 9.1835496e-39
-0.68354809 14.419897 0.79467034 9.1835496e-39
0.91661847 14.466366 0.50910878 9.1835496e-39
-0.31801885 12.069901 0.99907458 9.1835496e-39
-0.56297916 17.712908 0.88466382 9.1835496e-39
-1.018046 17.759863 0.25030056 9.1835496e-39
-1.0358951 10.782738 -0.15973398 9.1835496e-39
0.87413776 10.28165 0.57846779 9.1835496e-39
-1.01341 19.434135 0.26867652 9.1835496e-39
-0.9201262 15.574447 0.50285411 9.1835496e-39
0.17361951 16.785793 1.0336959 9.1835496e-39
-1.0278962 13.82669 0.20623341 9.1835496e-39
0.99011636 14.197298 0.34406537 9.1835496e-39
0.88953799 13.734129 -0.55489933 9.1835496e-39
0.33624241 18.809235 -0.99293292 9.1835496e-39
0.22578925 12.084517 -1.0235249 9.1835496e-39
-0.81185639 10.573403 -0.66345632 9.1835496e-39
-0.069078222 11.619163 -1.046272 9.1835496e-39
0.26437658 15.535281 -1.0146592 9.1835496e-39
0.48067892 15.637189 0.93142509 9.1835496e-39
0.83456814 15.11869 0.63417655 9.1835496e-39
-0.99708718 15.431065 0.32470328 9.1835496e-39
-0.012661277 15.882681 1.048249 9.1835496e-39
0.41071853 11.244938 -0.96432471 9.1835496e-39
-0.98710346 12.369487 -0.35243413 9.1835496e-39
-0.31903452 17.665539 -0.99877954 9.1835496e-39
1.0486466 17.341391 1.0922545e-05 9.1835496e-39
0.98673558 11.240295 0.3534559 9.1835496e-39
1.0483983 13.907959 -0.0079093548 9.1835496e-39
0.85048097 15.769376 -0.61327773 9.1835496e-39
-1.0240684 19.118942 0.22335795 9.1835496e-39
0.97557902 11.269123 0.3844443 9.1835496e-39
1.0180093 14.172758 0.25046408 9.1835496e-39
-1.0439587 15.645859 0.093550116 9.1835496e-39
-0.29657745 10.347595 -1.005304 9.1835496e-39
1.0235993 12.755518 0.22545645 9.1835496e-39
0.96175086 18.151814 -0.41666651 9.1835496e-39
0.97400218 13.792725 -0.38835531 9.1835496e-39
0.73708701 17.551514 0.74519193 9.1835496e-39
1.0194414 20.149675 -0.24405767 9.1835496e-39
0.72156948 12.308435 -0.76070958 9.1835496e-39
0.91943061 18.668209 0.50421935 9.1835496e-39
0.98238546 13.400743 0.36553895 9.1835496e-39
0.54430336 16.175705 -0.89580441 9.1835496e-39
-0.63830078 17.020485 0.8313691 9.1835496e-39
-0.88038087 12.719538 0.56928128 9.1835496e-39
0.15730478 17.072948 -1.0362798 9.1835496e-39
0.97219211 18.594635 0.39253807 9.1835496e-39
1.0476148 16.409113 0.032842651 9.1835496e-39
-0.84374684 12.307182 0.62234354 9.1835496e-39
-0.85610342 17.747292 0.60500461 9.1835496e-39
0.67960709 13.174541 0.79814488 9.1835496e-39
1.0187308 13.305149 0.24723716 9.1835496e-39
-0.68204546 17.632677 0.795995 9.1835496e-39
0.93629432 16.601889 -0.47112256 9.1835496e-39
-0.20528324 13.190646 1.0281084 9.1835496e-39
0.72216153 14.608386 0.76011741 9.1835496e-39
-1.029724 14.432631 0.19805551 9.1835496e-39
-0.64132124 11.235998 0.8290261 9.1835496e-39
0.23512168 13.903299 -1.0214387 9.1835496e-39
-0.58393919 16.813345 -0.87041938 9.1835496e-39
-0.96832693 16.297153 0.40146989 9.1835496e-39
0.37855649 15.075882 0.9776988 9.1835496e-39
1.0154269 19.403109 -0.26173401 9.1835496e-39
0.21035902 19.528727 1.026974 9.1835496e-39
-0.49663737 19.816681 -0.92329383 9.1835496e-39
-0.70266968 15.037578 0.77781236 9.1835496e-39
0.15287912 18.983879 1.0369809 9.1835496e-39
0.39046612 11.638355 0.97308868 9.1835496e-39
-0.71824491 12.633081 0.76403403 9.1835496e-39
0.041252926 17.503685 -1.0473505 9.1835496e-39
0.19766846 10.153219 1.0298107 9.1835496e-39
0.42673284 14.594763 -0.95739472 9.1835496e-39
-0.77940524 14.528139 -0.70086294 9.1835496e-39
-1.0208292 14.347232 0.2378488 9.1835496e-39
-0.3083553 17.315821 -1.0018821 9.1835496e-39
-0.06237679 12.683747 -1.0466866 9.1835496e-39
-0.72140145 15.132816 0.76087749 9.1835496e-39
-0.68683124 20.147335 -0.79177582 9.1835496e-39
-0.97387159 18.531254 -0.38865712 9.1835496e-39
-1.0305434 19.673883 -0.19352293 9.1835496e-39
0.98867673 15.108757 -0.3480643 9.1835496e-39
0.99260753 12.340812 -0.33714595 9.1835496e-39
-0.91955996 14.347082 -0.5039655 9.1835496e-39
0.28580058 13.582796 1.0084349 9.1835496e-39
-0.052976988 15.70772 -1.0469822 9.1835496e-39
-1.0408654 16.120852 0.12627342 9.1835496e-39
-0.99444282 11.728859 -0.33204827 9.1835496e-39
-0.93068206 12.87373 0.4821372 9.1835496e-39
-0.96619296 14.115129 0.40640125 9.1835496e-39
-0.79841363 16.397495 0.6793021 9.1835496e-39
0.94568187 14.794642 -0.45269841 9.1835496e-39
-1.0467821 15.980616 0.05933911 9.1835496e-39
-0.16550663 15.530543 1.0349809 9.1835496e-39
0.043722536 15.062316 1.0472729 9.1835496e-39
-0.83172208 16.342232 -0.63784564 9.1835496e-39
0.99806035 13.767294 0.32151008 9.1835496e-39
0.94477105 11.967818 -0.45448586 9.1835496e-39
-1.0429165 13.01532 0.10457503 9.1835496e-39
0.81219268 11.284513 -0.66302276 9.1835496e-39
-1.0253781 18.804752 -0.21749805 9.1835496e-39
0.51687151 13.638947 0.9120276 9.1835496e-39
1.0483453 15.25346 0.0096008349 9.1835496e-39
0.63853222 16.109177 -0.83118963 9.1835496e-39
-0.62821507 16.364855 0.83919239 9.1835496e-39
0.9765625 12.744509 -0.38171297 9.1835496e-39
-0.55230188 19.37311 0.89107406 9.1835496e-39
-0.18272328 18.643869 1.032254 9.1835496e-39
0.6709435 12.569912 0.80578279 9.1835496e-39
-0.99910682 12.399084 -0.31790811 9.1835496e-39
0.92980754 19.129229 0.48385346 9.1835496e-39
0.0077388026 19.05279 1.0484037 9.1835496e-39
1.0469269 19.634789 0.054733604 9.1835496e-39
-0.3667286 18.915693 0.98195714 9.1835496e-39
-0.17112732 15.444338 -1.0340906 9.1835496e-39
-1.0066274 14.57083 0.29202175 9.1835496e-39
0.036395758 13.148968 1.0475032 9.1835496e-39
-0.93724585 11.538738 -0.46925503 9.1835496e-39
1.0470612 16.380205 -0.050456628 9.1835496e-39
0.95169312 16.799896 -0.43990847 9.1835496e-39
0.43072051 15.58408 -0.95566905 9.1835496e-39
1.0012854 17.165081 0.31040931 9.1835496e-39
-1.0113268 12.842262 -0.27584663 9.1835496e-39
0.30163297 13.447194 -1.0038351 9.1835496e-39
0.89356011 17.795521 0.54809844 9.1835496e-39
-0.54170358 15.442169 -0.89734209 9.1835496e-39
0.75082201 19.936275 0.73145694 9.1835496e-39
-1.0325396 12.677328 -0.1809199 9.1835496e-39
0.29985943 14.089229 -1.0043504 9.1835496e-39
-0.89248222 10.146961 0.54992098 9.1835496e-39
-0.14688936 12.52366 1.0379295 9.1835496e-39
0.87335747 19.208958 -0.57961589 9.1835496e-39
-1.0466186 17.987583 0.064544901 9.1835496e-39
1.0311191 10.314996 0.18988931 9.1835496e-39
-0.6774866 17.055225 0.80001426 9.1835496e-39
0.65240574 20.187872 -0.82042813 9.1835496e-39
-1.0060701 15.562901 0.29394034 9.1835496e-39
-1.0472668 13.43502 0.043916769 9.1835496e-39
-0.027434142 12.121086 1.0477848 9.1835496e-39
0.68082547 12.391623 -0.79707074 9.1835496e-39
0.79649454 12.544422 -0.68147892 9.1835496e-39
-0.77307731 10.249634 0.7080406 9.1835496e-39
-0.78297502 17.004059 -0.69681382 9.1835496e-39
-0.87417704 14.383635 -0.57841003 9.1835496e-39
-0.76752806 16.83843 -0.71433502 9.1835496e-39
-0.87984371 16.151058 0.57007182 9.1835496e-39
-0.89283204 17.176155 0.54932952 9.1835496e-39
0.78204942 12.036934 -0.6978637 9.1835496e-39
-0.7596246 18.001499 0.72265434 9.1835496e-39
0.83754206 17.975216 -0.6303426 9.1835496e-39
-0.73184705 13.112333 0.7504319 9.1835496e-39
-0.78797889 15.704546 -0.69113809 9.1835496e-39
-0.3896451 14.791723 -0.97344398 9.1835496e-39
0.78412211 13.391413 0.69551277 9.1835496e-39
-0.34282571 19.40856 -0.99056274 9.1835496e-39
-1.0395212 17.966854 -0.13683952 9.1835496e-39
0.035603754 19.894741 1.047528 9.1835496e-39
1.0469916 15.482323 0.052675158 9.1835496e-39
-0.49901319 18.638676 0.92208332 9.1835496e-39
1.0471255 18.727606 0.048415273 9.1835496e-39
-1.0157067 19.125235 0.26076591 9.1835496e-39
1.0081646 20.102491 -0.28673077 9.1835496e-39
-0.89314365 14.85787 0.54880261 9.1835496e-39
-0.38254648 14.567761 0.97626233 9.1835496e-39
-0.43461549 16.468975 -0.9539836 9.1835496e-39
0.82389438 10.192703 -0.64793706 9.1835496e-39
0.27931014 16.806555 -1.0103205 9.1835496e-39
0.57735097 17.836103 -0.87489671 9.1835496e-39
-1.0087812 18.83914 -0.28460896 9.1835496e-39
0.6552515 20.140907 0.81822067 9.1835496e-39
-1.0481117 10.813113 -0.017031198 9.1835496e-39
-1.0478739 10.245394 -0.024601698 9.1835496e-39
-1.0341141 15.483422 -0.17097858 9.1835496e-39
0.35795054 19.11319 0.98511744 9.1835496e-39
0.82602 15.984291 0.64519662 9.1835496e-39
0.74709415 13.121185 -0.73518479 9.1835496e-39
0.81402969 11.150791 -0.66065454 9.1835496e-39
-0.89312458 17.855082 -0.54883468 9.1835496e-39
0.50858706 17.745798 -0.91692704 9.1835496e-39
1.0437107 12.713953 0.096174248 9.1835496e-39
1.0394185 10.420684 0.13748789 9.1835496e-39
0.08918947 10.83093 1.044371 9.1835496e-39
-0.089824863 16.604826 1.0443109 9.1835496e-39
0.38977483 18.424559 -0.97338784 9.1835496e-39
1.0334551 18.702156 -0.17513961 9.1835496e-39
-1.0244062 13.047011 0.22184616 9.1835496e-39
0.21538541 17.698221 -1.0258503 9.1835496e-39
0.35221535 10.37034 0.9871822 9.1835496e-39
-0.35105765 17.512474 -0.98759902 9.1835496e-39
-0.75993943 16.152935 -0.72233951 9.1835496e-39
1.0410273 15.912706 -0.12456085 9.1835496e-39
0.11058788 11.714302 1.0423483 9.1835496e-39
-0.54123211 13.575149 0.89762074 9.1835496e-39
-0.37583929 12.288517 -0.97867709 9.1835496e-39
-0.7624054 13.775473 -0.71987355 9.1835496e-39
0.37135285 10.861287 -0.98029232 9.1835496e-39
0.75455564 18.501741 0.7277233 9.1835496e-39
-0.80244601 12.910341 0.67472839 9.1835496e-39
-0.97233534 19.643253 0.39220697 9.1835496e-39
0.44164377 14.622322 -0.95094216 9.1835496e-39
-0.46883512 17.516994 -0.93745983 9.1835496e-39
-1.0367441 10.914221 -0.15437344 9.1835496e-39
0.63121486 18.095615 -0.83686543 9.1835496e-39
0.28419042 19.879562 1.0089027 9.1835496e-39
0.13540806 16.915489 -1.039748 9.1835496e-39
-0.54336756 18.351299 -0.89635789 9.1835496e-39
0.02986449 17.866045 -1.0477084 9.1835496e-39
0.95401257 12.81642 -0.43454874 9.1835496e-39
0.22203948 15.026813 -1.024363 9.1835496e-39
0.70975 18.729269 0.77157027 9.1835496e-39
1.0456774 14.078978 0.075368866 9.1835496e-39
-0.9309051 14.915503 0.48169941 9.1835496e-39
-0.82000959 13.571814 -0.65294528 9.1835496e-39
0.5393247 15.750542 -0.89874893 9.1835496e-39
0.91848385 10.59898 -0.50595468 9.1835496e-39
0.52701038 11.407513 -0.90603149 9.1835496e-39
1.0019808 15.575428 0.30801585 9.1835496e-39
-0.59273511 16.94009 0.86444169 9.1835496e-39
0.92835921 15.911633 -0.486696 9.1835496e-39
-1.0327393 15.65158 0.17965966 9.1835496e-39
-0.74170381 13.256808 -0.74057513 9.1835496e-39
-0.62548339 13.021301 0.84131134 9.1835496e-39
0.83929628 14.622926 -0.62808108 9.1835496e-39
-0.91463298 20.15947 -0.51246613 9.1835496e-39
0.77082992 10.808701 0.71058965 9.1835496e-39
0.84926236 19.168188 0.6150707 9.1835496e-39
-0.57910305 17.192005 0.87370604 9.1835496e-39
1.0477654 12.265261 -0.028054822 9.1835496e-39
-0.91722357 12.305897 0.50808549 9.1835496e-39
0.95760167 18.852859 0.42625487 9.1835496e-39
-0.032913901 12.407824 -1.0476125 9.1835496e-39
0.70404983 12.261499 0.77659559 9.1835496e-39
0.059178751 15.297707 -1.0467871 9.1835496e-39
-1.0182792 19.697981 0.24925728 9.1835496e-39
-1.0366492 11.794736 0.15497231 9.1835496e-39
-1.0083557 18.779598 -0.28607294 9.1835496e-39
-0.6856848 11.129263 0.7927866 9.1835496e-39
-0.51543361 17.403051 -0.91287792 9.1835496e-39
-0.84519511 12.021737 0.62047637 9.1835496e-39
-0.5201025 16.056084 0.91011685 9.1835496e-39
-0.72267598 11.054376 -0.75960302 9.1835496e-39
-0.12251727 12.293429 1.0412205 9.1835496e-39
-0.31477785 11.629493 -1.0000162 9.1835496e-39
-1.0321249 14.267862 -0.18353833 9.1835496e-39
-0.89693844 19.832661 -0.54238594 9.1835496e-39
0.28286943 14.381952 -1.0092865 9.1835496e-39
1.0446103 18.523266 -0.086658254 9.1835496e-39
0.21880487 11.134052 1.025086 9.1835496e-39
0.42992777 18.762005 -0.95601213 9.1835496e-39
-0.15417987 14.481211 -1.0367749 9.1835496e-39
-0.91324896 17.18862 0.51480627 9.1835496e-39
-1.0453242 17.922636 -0.079105429 9.1835496e-39
-0.71053839 16.651007 0.77087522 9.1835496e-39
0.75408 10.830693 -0.72819895 9.1835496e-39
-0.76338363 13.580416 -0.71889526 9.1835496e-39
-0.22111481 18.197128 -1.0245697 9.1835496e-39
-0.096651345 19.566536 1.0436656 9.1835496e-39
-0.80040175 12.160381 -0.67704713 9.1835496e-39
-0.023903545 18.115223 -1.0478958 9.1835496e-39
0.87175953 14.194104 0.58196729 9.1835496e-39
-0.2793659 18.920816 -1.0103045 9.1835496e-39
-0.58761084 17.31744 0.86792409 9.1835496e-39
0.64293861 10.665225 0.8277716 9.1835496e-39
0.58388734 12.605837 -0.87045467 9.1835496e-39
0.92862719 17.987234 -0.48617017 9.1835496e-39
0.71650904 17.556292 -0.76561141 9.1835496e-39
0.23483156 15.162024 1.0215037 9.1835496e-39
-0.43036959 18.334242 0.95582104 9.1835496e-39
0.63620669 19.630903 -0.83299339 9.1835496e-39
0.17630669 13.094945 1.0332702 9.1835496e-39
-0.049280949 12.016916 -1.0470982 9.1835496e-39
1.0009377 16.574682 0.31160569 9.1835496e-39
-0.8375628 18.758837 0.63031578 9.1835496e-39
-1.0485597 15.438408 -0.0027783334 9.1835496e-39
0.73873305 19.434158 -0.74354589 9.1835496e-39
0.75037789 19.930716 0.73190105 9.1835496e-39
1.023772 11.367426 0.22468367 9.1835496e-39
-0.91836286 20.045723 -0.50615913 9.1835496e-39
1.0483019 18.080963 -0.01097761 9.1835496e-39
0.89289385 11.965238 0.54922497 9.1835496e-39
-0.9540062 17.931175 -0.4345634 9.1835496e-39
0.7512846 19.391521 -0.73099434 9.1835496e-39
-1.0384196 19.743927 -0.14379464 9.1835496e-39
0.7583465 16.650349 -0.72393239 9.1835496e-39
0.34858361 12.115873 -0.98848975 9.1835496e-39
0.92169482 13.999088 -0.49977568 9.1835496e-39
1.0189456 12.295531 -0.24627563 9.1835496e-39
0.42243814 13.979603 0.95925319 9.1835496e-39
0.29173678 12.861341 1.0067103 9.1835496e-39
0.038251359 17.077541 -1.0474448 9.1835496e-39
1.0109106 12.549783 -0.27727893 9.1835496e-39
-1.0449984 19.881626 0.082552373 9.1835496e-39
-0.29000795 17.343697 -1.0072125 9.1835496e-39
0.11197148 11.334352 -1.0422174 9.1835496e-39
-1.0469778 17.624477 0.053115964 9.1835496e-39
0.48030466 14.628955 -0.93161577 9.1835496e-39
-0.68687797 13.830689 -0.7917347 9.1835496e-39
0.75440431 17.003508 0.72787452 9.1835496e-39
-0.77909213 11.25886 -0.70121813 9.1835496e-39
1.0207908 15.815552 -0.23802054 9.1835496e-39
-0.79367721 13.983971 0.6846745 9.1835496e-39
-0.70425916 13.783621 -0.77641106 9.1835496e-39
-0.054332208 20.101942 -1.0469396 9.1835496e-39
0.74791127 16.957447 0.73436767 9.1835496e-39
-0.17287324 17.153238 1.0338141 9.1835496e-39
0.95908993 16.237192 0.42281547 9.1835496e-39
-0.69239527 15.096867 -0.7868706 9.1835496e-39
1.0471433 13.609449 0.047845565 9.1835496e-39
0.10224247 19.710415 -1.0431371 9.1835496e-39
0.89866829 11.483364 -0.53946102 9.1835496e-39
-1.0362843 16.742371 -0.15727645 9.1835496e-39
0.44784528 15.278312 0.94815469 9.1835496e-39
-0.035117045 18.361963 -1.0475433 9.1835496e-39
0.093523078 12.109706 -1.0439613 9.1835496e-39
0.84988439 17.295731 0.61415565 9.1835496e-39
-1.0000025 19.696236 -0.31482512 9.1835496e-39
0.98708344 11.887001 0.35248971 9.1835496e-39
-0.96541619 12.772583 -0.40819621 9.1835496e-39
-0.088366687 18.819706 1.0444487 9.1835496e-39
-0.71327269 12.581984 0.76846462 9.1835496e-39
-0.76433742 14.506493 -0.71794158 9.1835496e-39
1.0463992 19.411076 -0.067733169 9.1835496e-39
0.98392212 11.248919 -0.36127084 9.1835496e-39
0.33124644 14.237719 0.99473155 9.1835496e-39
-1.0414541 15.534954 -0.12004557 9.1835496e-39
-0.8196283 16.541389 0.6534369 9.1835496e-39
-0.58146131 12.692101 -0.87210333 9.1835496e-39
0.95028657 14.522158 -0.44315886 9.1835496e-39
-0.57638597 17.651955 0.87555254 9.1835496e-39
-1.0366678 14.34562 -0.15485553 9.1835496e-39
-0.9071269 13.58376 0.52515817 9.1835496e-39
-0.86081833 16.831339 0.59806663 9.1835496e-39
0.65705639 10.279421 0.81682074 9.1835496e-39
-0.68802202 15.463345 0.79072607 9.1835496e-39
0.35422072 19.227695 0.98646027 9.1835496e-39
0.92879909 17.144625 -0.48583284 9.1835496e-39
-0.79633737 12.897373 -0.68165725 9.1835496e-39
0.83045125 18.590029 -0.63948393 9.1835496e-39
0.25487959 19.833042 -1.0170224 9.1835496e-39
1.0116065 14.962364 0.2748839 9.1835496e-39
-0.91605723 12.125326 -0.51005781 9.1835496e-39
0.94153786 14.390545 -0.46083155 9.1835496e-39
-0.082725592 14.868859 1.044982 9.1835496e-39
-0.55697775 16.947708 0.88830882 9.1835496e-39
0.86524445 15.765257 -0.59155393 9.1835496e-39
0.92205578 19.165297 0.49906725 9.1835496e-39
-0.78525805 18.87027 0.69422418 9.1835496e-39
0.84360176 14.056379 -0.6225304 9.1835496e-39
0.55314159 17.249468 0.89057761 9.1835496e-39
-1.0076618 12.859392 0.28846145 9.1835496e-39
0.68106973 19.37648 0.79685539 9.1835496e-39
0.51564926 12.593502 -0.91275048 9.1835496e-39
-1.0289308 19.818615 -0.20160423 9.1835496e-39
0.44061369 16.847765 0.95138794 9.1835496e-39
1.0308894 17.60924 -0.19133884 9.1835496e-39
-0.91530871 13.484352 0.51132345 9.1835496e-39
0.91017133 18.209263 -0.52001029 9.1835496e-39
0.7618739 15.231371 0.72040504 9.1835496e-39
1.0096405 19.574457 -0.28165078 9.1835496e-39
0.16725643 16.284332 -1.0347036 9.1835496e-39
0.82778984 17.554935 0.64291507 9.1835496e-39
-0.57737643 18.795561 0.87487942 9.1835496e-39
0.92896676 11.194731 -0.4855037 9.1835496e-39
1.0162572 10.861618 -0.25830302 9.1835496e-39
0.50537354 12.118968 -0.91882753 9.1835496e-39
-0.097660273 17.145634 -1.0435703 9.1835496e-39
-0.87405604 18.74114 -0.57858801 9.1835496e-39
1.0311921 13.588934 0.18942833 9.1835496e-39
0.95498359 15.730152 -0.43230465 9.1835496e-39
0.85135329 10.114525 0.61199415 9.1835496e-39
-0.98589754 16.440771 -0.35578364 9.1835496e-39
0.87845528 15.780416 -0.57211471 9.1835496e-39
0.93866742 13.603627 0.46646512 9.1835496e-39
-0.4079743 13.649542 0.96551228 9.1835496e-39
1.0347235 13.844608 -0.16713105 9.1835496e-39
1.0126506 12.113162 -0.27129036 9.1835496e-39
-0.58962506 10.835028 0.86655533 9.1835496e-39
-1.0449963 13.135142 -0.082574703 9.1835496e-39
-0.72029197 15.769904 0.76198697 9.1835496e-39
0.93375719 19.851234 0.47610188 9.1835496e-39
0.9361155 17.410753 0.4714734 9.1835496e-39
-1.0467023 11.674528 -0.061877672 9.1835496e-39
0.23087563 14.152705 1.022388 9.1835496e-39
-0.25881258 16.471348 -1.0161433 9.1835496e-39
0.29185596 18.291092 1.0066757 9.1835496e-39
-0.58740819 17.741238 -0.8680619 9.1835496e-39
-1.0429003 10.129734 0.10474701 9.1835496e-39
-0.8178547 14.514623 -0.65572333 9.1835496e-39
0.63506639 18.487808 0.83387792 9.1835496e-39
0.96363437 10.289564 0.41231394 9.1835496e-39
0.70570338 11.246382 0.77513784 9.1835496e-39
-1.0084045 16.27685 0.28590536 9.1835496e-39
-0.80092478 15.395512 0.67645383 9.1835496e-39
0.64630717 12.714999 -0.8251586 9.1835496e-39
0.37934616 14.242723 -0.97741449 9.1835496e-39
0.89866775 13.216715 0.53946185 9.1835496e-39
-0.93421304 19.201099 0.47520739 9.1835496e-39
-0.9597047 14.598514 0.42139482 9.1835496e-39
0.6888634 11.942194 0.78998429 9.1835496e-39
-1.010245 10.337208 0.27957025 9.1835496e-39
-1.0467042 15.851443 0.061818644 9.1835496e-39
0.34301379 17.428637 -0.99049497 9.1835496e-39
-0.32976028 16.674364 0.99526656 9.1835496e-39
1.0098876 18.677105 0.28080034 9.1835496e-39
-0.6533727 13.58813 0.81967813 9.1835496e-39
0.31619358 17.93648 0.99960494 9.1835496e-39
-1.0102004 13.312285 -0.27972376 9.1835496e-39
-0.24675575 17.734074 -1.0188383 9.1835496e-39
0.17927614 18.519806 1.0328 9.1835496e-39
-1.0271227 16.21022 0.20969307 9.1835496e-39
-1.0472249 17.743126 0.045252915 9.1835496e-39
-0.84166986 19.415863 0.6250211 9.1835496e-39
-0.43448779 16.891943 -0.95403886 9.1835496e-39
-0.9923991 19.589785 -0.33772501 9.1835496e-39
-0.05882575 14.248322 -1.0467982 9.1835496e-39
-0.96878517 18.785957 0.40041104 9.1835496e-39
-0.32368565 12.432133 0.99742824 9.1835496e-39
0.44043684 10.545297 -0.95146447 9.1835496e-39
-0.90636992 18.318321 -0.52643812 9.1835496e-39
0.13519382 13.987324 -1.0397818 9.1835496e-39
-0.97068542 10.115322 0.39601988 9.1835496e-39
-0.3840346 15.303722 -0.97572654 9.1835496e-39
1.0443428 18.753332 0.089487031 9.1835496e-39
0.25290561 19.084152 -1.0174637 9.1835496e-39
0.69253665 10.833611 -0.78674585 9.1835496e-39
1.0154399 19.43187 0.26168957 9.1835496e-39
-0.90116328 13.056854 0.5352422 9.1835496e-39
-0.86895579 15.841274 0.58609277 9.1835496e-39
-0.998631 13.690247 0.3195461 9.1835496e-39
-0.43249351 14.224074 -0.95490193 9.1835496e-39
-0.99598372 19.487705 -0.32776824 9.1835496e-39
-0.99306172 13.547855 -0.33588436 9.1835496e-39
-1.0476074 20.077923 0.033079721 9.1835496e-39
-0.44766468 13.42802 -0.94824666 9.1835496e-39
0.57653093 14.993078 0.87545407 9.1835496e-39
-0.20721403 16.082188 1.0276768 9.1835496e-39
-0.11044971 19.40745 1.0423613 9.1835496e-39
-0.58948082 13.884277 -0.86665332 9.1835496e-39
0.63774276 18.833786 0.83180189 9.1835496e-39
1.0390961 13.543945 -0.13952367 9.1835496e-39
-0.7658965 18.036119 -0.71618563 9.1835496e-39
-0.98164666 16.017458 -0.36759102 9.1835496e-39
0.32885271 19.851002 0.99559331 9.1835496e-39
0.19042844 15.000481 1.0310335 9.1835496e-39
0.36573142 11.051218 0.98231614 9.1835496e-39
0.63371247 16.289423 -0.83492815 9.1835496e-39
-0.69787061 13.998032 -0.78204334 9.1835496e-39
0.51997149 17.427938 -0.91019428 9.1835496e-39
-0.099416003 14.109564 1.0434043 9.1835496e-39
-1.0455577 17.737247 -0.076634802 9.1835496e-39
-0.62238199 13.778109 0.84371698 9.1835496e-39
0.23600522 18.131376 1.0212413 9.1835496e-39
0.35665566 11.769482 -0.98558354 9.1835496e-39
0.76652336 15.60129 0.71547461 9.1835496e-39
1.0144665 18.399754 -0.2650395 9.1835496e-39
0.45092279 16.351208 0.94658655 9.1835496e-39
0.48165214 11.736384 -0.93092918 9.1835496e-39
-0.42565334 12.218275 0.95786184 9.1835496e-39
1.0047791 17.275562 0.2983838 9.1835496e-39
-1.0429963 15.81019 0.10373228 9.1835496e-39
-0.35395122 17.483467 0.9865573 9.1835496e-39
0.96952283 14.401136 0.39870656 9.1835496e-39
-0.40861857 18.70178 0.96523345 9.1835496e-39
-0.99636412 16.71353 -0.32671177 9.1835496e-39
-1.0140629 13.757581 0.26642919 9.1835496e-39
0.39794886 16.204483 0.96985066 9.1835496e-39
1.0335664 10.768291 0.17443721 9.1835496e-39
0.11145583 11.715117 1.0422661 9.1835496e-39
-1.0306697 13.65107 0.19272667 9.1835496e-39
0.81184113 17.495373 -0.66347605 9.1835496e-39
-1.0221971 11.747566 0.23172957 9.1835496e-39
0.38123465 15.341324 -0.97673464 9.1835496e-39
-1.0327555 17.594625 0.17955735 9.1835496e-39
-0.51372242 15.00071 -0.91389 9.1835496e-39
-0.83828968 17.763319 -0.62937874 9.1835496e-39
-1.0459771 12.15585 0.072198436 9.1835496e-39
0.58580422 13.352402 0.86915195 9.1835496e-39
0.024466066 11.218592 1.047878 9.1835496e-39
-0.88556212 17.58 -0.5616222 9.1835496e-39
-0.98160672 11.383338 0.36770219 9.1835496e-39
-0.50131524 12.341435 0.92091048 9.1835496e-39
-0.87161052 15.966196 -0.58218646 9.1835496e-39
-1.0110176 16.163065 0.27691129 9.1835496e-39
-0.24317317 18.738714 -1.019639 9.1835496e-39
-1.0445979 19.496006 0.086789176 9.1835496e-39
-0.098352149 13.26329 -1.0435048 9.1835496e-39
-0.73106623 15.839357 -0.75121272 9.1835496e-39
1.0435462 19.905319 -0.097915314 9.1835496e-39
0.66891026 11.958063 0.80757523 9.1835496e-39
0.76011598 14.102604 0.7221629 9.1835496e-39
-0.89005339 19.285723 0.5540278 9.1835496e-39
-0.58665073 11.181557 0.86857665 9.1835496e-39
1.0014139 17.222904 -0.3099668 9.1835496e-39
-0.97500217 13.936096 -0.38604444 9.1835496e-39
-0.13947782 13.287231 -1.0391034 9.1835496e-39
0.91178656 11.854424 -0.51727909 9.1835496e-39
-0.27225775 13.772536 1.0123695 9.1835496e-39
0.8348825 17.991762 -0.6337713 9.1835496e-39
1.0135401 17.249599 -0.26822841 9.1835496e-39
0.97759181 11.168585 -0.37885362 9.1835496e-39
0.022608578 14.655238 -1.0479364 9.1835496e-39
0.63726211 11.478748 -0.83217472 9.1835496e-39
1.0092247 12.422995 0.28308272 9.1835496e-39
0.28224751 17.983435 -1.0094671 9.1835496e-39
0.31843272 18.890526 -0.99895436 9.1835496e-39
-0.6226604 17.682764 -0.84350103 9.1835496e-39
0.47168142 16.694252 -0.93600959 9.1835496e-39
-1.048447 10.815291 0.006360326 9.1835496e-39
0.81188983 19.19849 -0.66341317 9.1835496e-39
-0.84708542 11.998236 -0.61803931 9.1835496e-39
0.93150055 18.981537 0.4805308 9.1835496e-39
-0.61857539 13.911335 -0.84666967 9.1835496e-39
0.83807802 16.374149 -0.62965167 9.1835496e-39
-0.26956046 16.55415 1.0131531 9.1835496e-39
-1.0119644 17.112015 -0.27365196 9.1835496e-39
0.67557216 17.668121 0.80170214 9.1835496e-39
0.39330351 14.700298 -0.97186089 9.1835496e-39
0.37713328 17.901545 0.97821116 9.1835496e-39
-0.12192631 11.845061 1.0412763 9.1835496e-39
0.51172447 15.463383 0.91507149 9.1835496e-39
1.0377855 12.745794 0.14779872 9.1835496e-39
0.048261244 19.68952 1.0471303 9.1835496e-39
0.4292503 15.777751 0.95630527 9.1835496e-39
0.23577815 10.500446 -1.0212921 9.1835496e-39
-0.82023036 12.534249 -0.65266073 9.1835496e-39
-0.72837436 19.35216 0.75390458 9.1835496e-39
1.0452006 17.574511 0.080413923 9.1835496e-39
0.32765228 18.153942 -0.99602544 9.1835496e-39
-0.61689734 13.428174 -0.8479712 9.1835496e-39
-1.0482453 16.682541 0.012779659 9.1835496e-39
-0.34409463 12.110372 0.99010587 9.1835496e-39
0.388239 11.301553 -0.97405249 9.1835496e-39
0.72380388 19.769945 -0.75847507 9.1835496e-39
-1.0169749 18.718031 -0.25509185 9.1835496e-39
-0.85466236 15.140136 -0.60712492 9.1835496e-39
0.65443742 20.189354 -0.81885219 9.1835496e-39
1.001452 10.318577 -0.3098357 9.1835496e-39
-0.17526272 11.925476 -1.0334356 9.1835496e-39
-0.5665198 13.182913 -0.88225758 9.1835496e-39
-0.66141915 12.114574 -0.81343657 9.1835496e-39
-0.23562437 13.051675 1.0213264 9.1835496e-39
-0.52220166 13.136247 -0.90887535 9.1835496e-39
-0.94319034 18.581551 0.45758849 9.1835496e-39
-1.0356928 17.089693 0.1610114 9.1835496e-39
0.84650528 19.663561 0.61878723 9.1835496e-39
0.61403614 17.033195 -0.84996557 9.1835496e-39
0.66452408 16.769518 -0.81102818 9.1835496e-39
0.98154068 13.920713 -0.36788529 9.1835496e-39
-0.32144874 11.627457 0.99807817 9.1835496e-39
0.38974148 16.892469 0.97340232 9.1835496e-39
0.20285149 19.90539 -1.0286521 9.1835496e-39
0.82562029 20.061718 0.64571202 9.1835496e-39
-0.8824805 12.109886 0.56619173 9.1835496e-39
0.69965243 18.404133 -0.78047252 9.1835496e-39
-0.1504328 11.65059 1.0373683 9.1835496e-39
0.16158682 18.927078 1.0356016 9.1835496e-39
0.83509427 19.912296 0.63349819 9.1835496e-39
0.93984038 15.772251 -0.46416304 9.1835496e-39
-1.0467844 14.149818 0.059267409 9.1835496e-39
-0.97693557 11.715427 0.38067651 9.1835496e-39
-0.25337756 16.080122 1.0173581 9.1835496e-39
-0.4360671 17.843533 0.95335543 9.1835496e-39
-0.62540579 17.144993 0.84137142 9.1835496e-39
-0.096655235 14.876426 1.0436653 9.1835496e-39
-0.86521477 12.505507 -0.59159756 9.1835496e-39
0.94958556 16.087414 -0.44477868 9.1835496e-39
0.63108897 17.751331 0.83696306 9.1835496e-39
0.38290337 15.574723 0.97613382 9.1835496e-39
0.24080135 13.984362 -1.0201693 9.1835496e-39
-0.89395553 16.274771 -0.54742968 9.1835496e-39
0.11563233 11.303635 1.0418714 9.1835496e-39
1.0419139 11.598187 0.11518279 9.1835496e-39
-0.89883494 17.429701 -0.53917897 9.1835496e-39
-0.81651884 12.424047 0.65744555 9.1835496e-39
0.81087166 17.239571 -0.66472584 9.1835496e-39
0.36187497 14.440408 0.98370451 9.1835496e-39
0.64466941 18.41242 0.82642901 9.1835496e-39
-0.8054235 15.308621 -0.67135108 9.1835496e-39
-1.03739 19.935297 -0.15029523 9.1835496e-39
0.36306554 16.25808 0.98327589 9.1835496e-39
0.29670542 15.974447 -1.0052667 9.1835496e-39
0.73031497 14.391499 0.75196397 9.1835496e-39
-0.24340299 19.416626 1.0195878 9.1835496e-39
-0.37537411 19.93811 -0.97884458 9.1835496e-39
0.2301873 16.247137 1.0225419 9.1835496e-39
0.72689354 14.058805 0.7553854 9.1835496e-39
-0.64433312 18.524166 -0.8266899 9.1835496e-39
0.84488887 11.584783 -0.62087119 9.1835496e-39
0.28481919 12.305475 -1.00872 9.1835496e-39
0.51890105 11.772919 -0.91082728 9.1835496e-39
-1.000897 14.284166 0.31174627 9.1835496e-39
0.9969722 15.38089 -0.32502264 9.1835496e-39
-0.72484595 11.858286 -0.757433 9.1835496e-39
0.6397599 10.694921 -0.83023721 9.1835496e-39
0.80169505 19.659832 -0.6755802 9.1835496e-39
-0.40743485 16.190428 0.96574575 9.1835496e-39
0.93553436 10.801651 0.47261405 9.1835496e-39
-0.35786653 18.681883 0.98514771 9.1835496e-39
0.20169617 13.377975 1.0289103 9.1835496e-39
-0.91107309 16.444082 -0.51848555 9.1835496e-39
1.0444376 18.26479 -0.08848466 9.1835496e-39
-0.53464925 19.534672 -0.90151387 9.1835496e-39
-0.70355701 18.844103 -0.77703017 9.1835496e-39
-1.0409381 18.57947 0.12550421 9.1835496e-39
-0.85338944 11.594083 -0.60899806 9.1835496e-39
0.71977729 17.916985 -0.76250166 9.1835496e-39
-1.0481462 15.429375 -0.015933376 9.1835496e-39
-0.69997376 11.811174 -0.78018916 9.1835496e-39
0.76723629 12.00435 -0.71466595 9.1835496e-39
0.15144388 20.196819 -1.0372081 9.1835496e-39
-1.0469954 15.146536 -0.052552715 9.1835496e-39
0.69680738 13.496135 -0.78298074 9.1835496e-39
1.0388093 17.32526 -0.14133438 9.1835496e-39
0.67717564 13.484678 0.80028832 9.1835496e-39
1.0145441 12.879526 0.26477233 9.1835496e-39
0.86387062 10.855637 -0.59357542 9.1835496e-39
0.63612264 14.978527 -0.83305854 9.1835496e-39
-1.019098 19.292278 -0.24559407 9.1835496e-39
0.6491515 19.189598 -0.82295239 9.1835496e-39
-0.84118581 15.046885 -0.62564504 9.1835496e-39
-0.81858134 12.442582 -0.65478659 9.1835496e-39
-0.43676078 19.077436 0.95305526 9.1835496e-39
-0.40066332 19.526279 -0.96867597 9.1835496e-39
-0.53466392 15.177994 0.90150523 9.1835496e-39
0.74480039 16.388828 0.73747849 9.1835496e-39
0.97703654 10.272521 -0.38039604 9.1835496e-39
0.87673092 11.75754 0.57465202 9.1835496e-39
-0.58652031 12.521907 -0.86866528 9.1835496e-39
0.92484403 19.497679 -0.49359497 9.1835496e-39
0.66083086 12.691315 0.8138929 9.1835496e-39
0.75391138 14.947829 -0.72836757 9.1835496e-39
0.77249897 17.12188 0.7086966 9.1835496e-39
-1.0337085 16.243917 -0.17354028 9.1835496e-39
-0.013241349 17.525507 -1.0482308 9.1835496e-39
-0.058988053 18.22818 1.0467931 9.1835496e-39
-0.60884362 12.613738 -0.85349435 9.1835496e-39
0.3317368 11.282613 -0.99455494 9.1835496e-39
0.25524104 15.6798 1.0169415 9.1835496e-39
-1.0442235 19.50123 -0.090749159 9.1835496e-39
-0.84964156 14.728563 -0.61451286 9.1835496e-39
0.093164034 17.601803 1.0439953 9.1835496e-39
0.96193343 10.941478 -0.41624463 9.1835496e-39
-0.9833402 14.876425 -0.36288694 9.1835496e-39
0.91347694 11.063335 0.51442087 9.1835496e-39
-0.58092469 12.629913 -0.87246805 9.1835496e-39
-0.36444306 19.696815 0.98277998 9.1835496e-39
0.98494786 19.790215 -0.3584215 9.1835496e-39
-0.95214915 12.62525 0.43885481 9.1835496e-39
-0.28343821 18.726768 1.0091213 9.1835496e-39
-0.84747338 18.900955 0.61753917 9.1835496e-39
-0.53160608 16.644932 0.90331364 9.1835496e-39
-0.1398834 10.65053 -1.0390391 9.1835496e-39
0.68875277 11.459293 -0.79008186 9.1835496e-39
-1.0042965 10.944399 0.30004448 9.1835496e-39
0.41790053 17.423162 -0.96121681 9.1835496e-39
0.87062085 11.173176 0.58364278 9.1835496e-39
0.19121441 14.880678 1.0309091 9.1835496e-39
-0.27780193 16.837553 1.0107588 9.1835496e-39
1.0029929 19.525021 -0.30453229 9.1835496e-39
0.64793658 10.390481 0.8238948 9.1835496e-39
1.0472817 17.628559 -0.043442599 9.1835496e-39
-0.81588024 11.570273 0.65826875 9.1835496e-39
-1.0053509 10.759244 0.29641563 9.1835496e-39
-0.32876581 11.93527 -0.9956246 9.1835496e-39
0.73458517 16.665144 -0.74769384 9.1835496e-39
0.055910412 19.26759 1.04689 9.1835496e-39
-1.012596 13.674864 0.27147821 9.1835496e-39
-0.38296217 14.545122 0.97611272 9.1835496e-39
1.0360043 12.334555 0.15904479 9.1835496e-39
0.78897917 10.97164 0.69000345 9.1835496e-39
0.4672786 18.484999 0.93825293 9.1835496e-39
-1.0020736 18.221058 0.30769578 9.1835496e-39
0.76560903 16.445953 -0.71651179 9.1835496e-39
1.0421154 11.464944 0.11305044 9.1835496e-39
0.92603505 18.593765 -0.49125749 9.1835496e-39
-0.23226674 12.347463 1.022077 9.1835496e-39
-0.75756085 17.790401 0.72471809 9.1835496e-39
0.46462893 12.392422 0.93960291 9.1835496e-39
0.87972742 17.710487 0.570243 9.1835496e-39
-0.95857882 14.858109 0.42399651 9.1835496e-39
-0.86775309 18.131927 -0.58786255 9.1835496e-39
0.92384732 11.21949 -0.49555108 9.1835496e-39
0.71726906 14.425322 0.76494133 9.1835496e-39
0.87347317 11.156264 0.5794456 9.1835496e-39
0.020224541 18.212328 1.0480113 9.1835496e-39
-0.92523867 17.956326 0.49282041 9.1835496e-39
-0.27852508 15.248924 -1.0105486 9.1835496e-39
-0.49738148 14.985418 0.92291462 9.1835496e-39
-0.94842005 15.783583 -0.44732445 9.1835496e-39
-0.87413234 12.656044 0.57847571 9.1835496e-39
1.0177994 14.180735 -0.25140381 9.1835496e-39
0.052023388 14.205253 1.047012 9.1835496e-39
-0.63016111 17.876692 -0.83768284 9.1835496e-39
-0.77668297 19.082159 -0.70395076 9.1835496e-39
0.71407598 10.39087 -0.7677564 9.1835496e-39
-0.0024999997 13.186157 1.0485684 9.1835496e-39
1.0069457 14.19586 0.29092622 9.1835496e-39
-0.48442295 19.967422 -0.92951739 9.1835496e-39
-1.0329216 16.77532 0.17850795 9.1835496e-39
-0.9943493 14.610863 0.33230796 9.1835496e-39
-0.23803389 13.75279 -1.020788 9.1835496e-39
-0.98725784 19.556305 0.35200542 9.1835496e-39
0.81181234 13.207348 0.66351312 9.1835496e-39
-0.94853371 10.383978 -0.44710144 9.1835496e-39
0.6649363 17.130123 -0.8107084 9.1835496e-39
0.78080601 17.020311 -0.69927406 9.1835496e-39
0.98401976 15.300878 -0.36099944 9.1835496e-39
-0.86172718 10.558632 0.59672952 9.1835496e-39
-0.95834321 18.250616 0.42454094 9.1835496e-39
0.66231084 13.889561 0.81274498 9.1835496e-39
0.98517531 18.378242 -0.35778973 9.1835496e-39
-0.99740541 12.881643 0.32376438 9.1835496e-39
-0.89790982 13.722967 -0.54074335 9.1835496e-39
-1.0214696 12.407337 0.23498358 9.1835496e-39
0.42043379 18.560215 0.96012056 9.1835496e-39
1.047678 17.450569 0.030833177 9.1835496e-39
-0.58489692 14.326672 0.8697685 9.1835496e-39
0.86196601 11.958387 -0.59637797 9.1835496e-39
1.044515 16.13962 0.087665677 9.1835496e-39
0.033533607 16.779999 1.0475931 9.1835496e-39
1.0468082 12.463604 0.058510501 9.1835496e-39
-0.058257155 15.688961 1.0468161 9.1835496e-39
0.055981051 17.266356 1.0468876 9.1835496e-39
-0.83627617 12.38937 -0.63197458 9.1835496e-39
1.029611 17.501638 -0.19856113 9.1835496e-39
0.3993322 19.492493 0.96925199 9.1835496e-39
-1.0341618 15.509935 -0.17067857 9.1835496e-39
1.0372878 18.01609 0.15094098 9.1835496e-39
-0.63868445 16.780682 0.83107144 9.1835496e-39
1.0476153 12.484724 0.03282826 9.1835496e-39
-0.85173249 16.876947 0.61143613 9.1835496e-39
-0.14753462 13.340553 1.0378273 9.1835496e-39
0.95013541 17.823479 0.44350827 9.1835496e-39
0.82052469 13.959018 -0.65228128 9.1835496e-39
-0.46914393 13.442415 0.93730247 9.1835496e-39
0.21931966 18.050697 1.024971 9.1835496e-39
-1.0204089 15.810032 0.23972949 9.1835496e-39
1.0472113 11.346142 0.045684639 9.1835496e-39
0.067503139 13.987541 1.0464208 9.1835496e-39
-0.79056925 12.540641 -0.68819982 9.1835496e-39
-0.067167699 10.908485 1.0464528 9.1835496e-39
0.64500087 14.227761 0.82617193 9.1835496e-39
-0.29211372 16.965502 -1.0066009 9.1835496e-39
-1.0167689 12.083225 -0.25601396 9.1835496e-39
0.89879847 17.489006 0.53924072 9.1835496e-39
-1.0054402 19.829865 -0.29610825 9.1835496e-39
0.93770301 12.619546 -0.46835777 9.1835496e-39
-0.98449481 15.669237 -0.35967991 9.1835496e-39
-0.58092082 19.460724 0.87247062 9.1835496e-39
-0.36778429 13.526785 0.98157704 9.1835496e-39
-0.43099904 15.665185 -0.95554864 9.1835496e-39
-1.0406152 16.904329 0.12892114 9.1835496e-39
1.0038805 17.692955 -0.30147725 9.1835496e-39
-0.62947738 12.725312 0.83821321 9.1835496e-39
-0.10572726 19.962389 1.0428076 9.1835496e-39
-0.51283258 13.582135 -0.91441613 9.1835496e-39
-0.051722649 19.688654 -1.0470215 9.1835496e-39
1.0262324 11.24645 0.21367663 9.1835496e-39
-1.0010834 13.260999 -0.31110439 9.1835496e-39
-0.62158996 14.162786 -0.84433132 9.1835496e-39
-0.60065222 11.98076 0.85906124 9.1835496e-39
1.0386301 14.134874 0.14246581 9.1835496e-39
1.0292443 14.680695 -0.20020163 9.1835496e-39
0.0029511312 19.394411 1.0485542 9.1835496e-39
0.035634998 16.097437 -1.0475272 9.1835496e-39
0.44381282 17.777939 -0.9500035 9.1835496e-39
-0.6426785 10.943464 -0.82797331 9.1835496e-39
-0.26082441 14.665875 -1.0156913 9.1835496e-39
1.0482829 11.42401 0.011585174 9.1835496e-39
0.13754605 12.478422 -1.0394093 9.1835496e-39
-0.71394312 18.163177 -0.76787359 9.1835496e-39
0.54167825 15.092464 -0.89735687 9.1835496e-39
-1.0255674 18.246433 -0.21665148 9.1835496e-39
-0.98790121 11.613123 0.35021824 9.1835496e-39
0.90147054 16.171068 0.53472269 9.1835496e-39
-0.98868853 16.518497 -0.34803143 9.1835496e-39
-0.86826754 10.333097 0.58710551 9.1835496e-39
-1.0010718 14.403984 -0.31114444 9.1835496e-39
-0.99758309 12.507692 -0.32315257 9.1835496e-39
-0.0075701079 12.173314 -1.048409 9.1835496e-39
-1.0214198 10.584072 0.23520717 9.1835496e-39
-0.73572063 12.297207 0.74655831 9.1835496e-39
1.0087817 14.859396 -0.28460705 9.1835496e-39
0.48052627 19.864437 0.93150288 9.1835496e-39
-0.78123343 11.647894 0.69878924 9.1835496e-39
0.52917963 17.400021 -0.90474862 9.1835496e-39
0.22437471 10.177876 1.0238411 9.1835496e-39
-0.023633672 11.271986 1.0479043 9.1835496e-39
1.0473874 15.286245 -0.040082224 9.1835496e-39
1.0302634 16.996706 -0.19529092 9.1835496e-39
0.61429566 18.879261 -0.8497892 9.1835496e-39
1.0060441 13.508155 -0.29402986 9.1835496e-39
-0.40658617 15.12502 0.96611297 9.1835496e-39
0.82553589 18.637449 -0.64582086 9.1835496e-39
0.99782157 13.567017 -0.32233167 9.1835496e-39
0.0946429 19.138929 1.0438554 9.1835496e-39
-0.97398716 12.65695 -0.38839003 9.1835496e-39
-0.9439438 19.44433 -0.45610964 9.1835496e-39
1.0412552 17.94817 -0.12214995 9.1835496e-39
0.23513055 13.45552 -1.0214368 9.1835496e-39
0.05913008 19.714127 -1.0467887 9.1835496e-39
-1.0288063 11.903044 -0.20216085 9.1835496e-39
0.99671835 11.691209 -0.32572773 9.1835496e-39
-1.0062996 14.307292 -0.2931506 9.1835496e-39
0.022715364 17.215565 -1.0479331 9.1835496e-39
-0.39776939 10.224298 -0.96992826 9.1835496e-39
0.76336193 17.162994 -0.71891695 9.1835496e-39
-0.061187424 12.852989 -1.0467241 9.1835496e-39
0.47279623 18.298492 -0.93544149 9.1835496e-39
-0.47366673 13.526304 -0.93499792 9.1835496e-39
1.030709 19.857 0.19247817 9.1835496e-39
-0.64300859 18.168648 0.8277173 9.1835496e-39
1.0368931 14.046624 0.15343285 9.1835496e-39
1.0479685 10.161762 -0.021587132 9.1835496e-39
-0.97747862 13.858006 0.37916794 9.1835496e-39
0.043809693 10.869576 -1.0472702 9.1835496e-39
0.1312366 11.968058 -1.0403963 9.1835496e-39
-0.35589883 15.681767 -0.98585606 9.1835496e-39
0.26244316 13.005001 -1.0152209 9.1835496e-39
1.0074962 19.225555 0.28903154 9.1835496e-39
-0.96087611 19.319916 0.41868788 9.1835496e-39
0.31981865 18.880554 -0.99855173 9.1835496e-39
0.88142323 10.274252 0.56774747 9.1835496e-39
-0.7238068 19.995361 -0.7584722 9.1835496e-39
-0.32819796 17.134636 0.99582899 9.1835496e-39
0.93151832 13.449002 0.48049584 9.1835496e-39
0.45093891 18.485508 0.94657838 9.1835496e-39
0.49693736 14.78624 0.923141 9.1835496e-39
-0.6807825 15.10483 -0.79710853 9.1835496e-39
-0.98515689 11.894389 -0.35784075 9.1835496e-39
-0.32127231 12.619094 -0.99812937 9.1835496e-39
0.61085224 15.832212 -0.85212922 9.1835496e-39
-1.0467645 16.675737 -0.059901621 9.1835496e-39
-0.65952843 15.98226 -0.81490314 9.1835496e-39
0.23415914 19.221619 -1.021654 9.1835496e-39
-0.34118831 18.617744 -0.99115229 9.1835496e-39
0.97292304 10.456161 0.39084899 9.1835496e-39
0.062118687 11.517068 -1.0466949 9.1835496e-39
-1.0374422 11.780808 -0.14996549 9.1835496e-39
0.37836212 16.995123 0.97776878 9.1835496e-39
-0.96892655 12.742966 0.40008456 9.1835496e-39
-0.25017253 18.706091 1.0180745 9.1835496e-39
0.86883086 18.034143 0.58627671 9.1835496e-39
0.81921268 17.138035 -0.65397274 9.1835496e-39
-0.54943275 11.93977 -0.89277101 9.1835496e-39
0.64237529 18.404074 -0.82820845 9.1835496e-39
0.22695833 18.614056 1.0232636 9.1835496e-39
-1.035493 13.427711 -0.16227293 9.1835496e-39
-1.0196805 10.834808 0.24298757 9.1835496e-39
0.48016414 14.775204 -0.93168747 9.1835496e-39
-0.48926935 14.466282 -0.92704809 9.1835496e-39
-0.96923399 17.843731 0.39937383 9.1835496e-39
0.88448143 17.107613 -0.5632475 9.1835496e-39
0.38538074 14.725064 0.97524202 9.1835496e-39
0.88034737 14.070229 -0.56933069 9.1835496e-39
-0.64036965 17.218403 0.82976425 9.1835496e-39
-0.76298714 16.784803 -0.71929181 9.1835496e-39
0.74923372 13.181058 -0.73304522 9.1835496e-39
-0.23320162 11.454203 1.021868 9.1835496e-39
-1.0428241 18.073055 0.10555255 9.1835496e-39
1.0114071 17.818832 0.27557006 9.1835496e-39
-0.5798704 15.996852 -0.8731845 9.1835496e-39
0.47910145 13.753426 0.93222886 9.1835496e-39
0.86767805 18.643772 0.587973 9.1835496e-39
0.92615169 15.138199 0.49102855 9.1835496e-39
0.80839843 14.473172 -0.66791433 9.1835496e-39
0.025006346 16.390984 1.0478611 9.1835496e-39
0.29978245 14.706226 1.0043728 9.1835496e-39
-1.0427345 10.413536 -0.10650085 9.1835496e-39
-0.28603488 13.810442 -1.0083668 9.1835496e-39
1.0240384 13.782868 -0.22349147 9.1835496e-39
-0.13684788 16.187824 -1.03952 9.1835496e-39
-0.24808897 19.779348 1.0185403 9.1835496e-39
-0.11350091 17.239119 -1.0420728 9.1835496e-39
1.0269283 11.702107 -0.21056318 9.1835496e-39
-0.66977191 10.439249 -0.80681568 9.1835496e-39
-0.7869904 16.750919 -0.69225925 9.1835496e-39
0.77417511 15.067415 0.70679539 9.1835496e-39
-0.56787592 19.799019 -0.88133597 9.1835496e-39
-0.28451031 18.294182 -1.0088098 9.1835496e-39
0.90783376 12.793656 0.52396303 9.1835496e-39
-1.0211151 18.504234 0.23657006 9.1835496e-39
-0.29284668 19.295036 1.0063878 9.1835496e-39
-1.0339341 18.663046 0.17211515 9.1835496e-39
0.35805956 17.661108 0.98507822 9.1835496e-39
-0.66997343 10.259749 0.80663794 9.1835496e-39
-0.54734409 16.53717 0.89400613 9.1835496e-39
-0.098154664 19.955349 -1.0435236 9.1835496e-39
-0.96872884 10.316436 0.40054113 9.1835496e-39
-0.30645305 16.905056 -1.0024348 9.1835496e-39
1.0241437 17.000814 0.22302079 9.1835496e-39
-1.041393 14.429859 0.12069125 9.1835496e-39
-0.33286646 19.325109 -0.99414825 9.1835496e-39
0.62525553 16.063395 -0.84148794 9.1835496e-39
1.007153 19.380093 0.29021305 9.1835496e-39
-0.67397845 10.278464 0.8031072 9.1835496e-39
-0.37308654 16.327314 -0.9796682 9.1835496e-39
-0.16349994 15.518202 1.0352987 9.1835496e-39
-0.49965543 13.919954 0.92175609 9.1835496e-39
-0.61804479 18.890646 0.84708118 9.1835496e-39
0.9553284 11.394753 0.43150789 9.1835496e-39
-0.88910365 14.434156 0.55563384 9.1835496e-39
0.67824781 14.438492 0.79934323 9.1835496e-39
-1.0448339 18.782032 -0.084291294 9.1835496e-39
-0.27216831 16.687481 1.0123954 9.1835496e-39
-0.94486439 15.790745 0.45430279 9.1835496e-39
-0.991225 19.511177 -0.3409861 9.1835496e-39
-0.35574067 10.969584 0.98591304 9.1835496e-39
0.20053378 11.18271 -1.0291702 9.1835496e-39
-0.60818928 16.889559 -0.85393906 9.1835496e-39
-0.79707211 19.870687 -0.6808238 9.1835496e-39
0.07309702 13.519045 -1.0458922 9.1835496e-39
-0.97979224 19.799767 -0.37274161 9.1835496e-39
-0.29690111 17.071907 1.0052099 9.1835496e-39
-1.0176624 13.825416 0.25201654 9.1835496e-39
0.035711125 16.500769 1.0475247 9.1835496e-39
1.0458369 14.144407 0.07368046 9.1835496e-39
0.82512891 14.213978 0.6463455 9.1835496e-39
0.048599854 11.764992 1.0471197 9.1835496e-39
0.72766799 15.333838 -0.75461084 9.1835496e-39
