# .PCD v0.7 - Point Cloud Data file format
VERSION 0.7
FIELDS x y z rgb
SIZE 4 4 4 4
TYPE F F F F
COUNT 1 1 1 1
WIDTH 1051
HEIGHT 1
VIEWPOINT 0 0 0 1 0 0 0
POINTS 1051
DATA ascii
-11.459087 13.851383 1.0846004 2.3418052e-38
-10.315084 14.261044 3.3520381 2.3418052e-38
-10.19805 14.255999 3.3456621 2.3418052e-38
-10.927546 13.80111 0.88575816 2.3418052e-38
-9.7443743 14.233889 3.22349 2.3418052e-38
-10.502994 13.793103 0.89931363 2.3418052e-38
-9.3770952 14.146975 2.8807244 2.3418052e-38
-9.3209562 14.121812 2.7649059 2.3418052e-38
-9.2580776 14.016427 2.2324996 2.3418052e-38
-9.4350634 13.909641 1.6652144 2.3418052e-38
-12.364241 14.318966 3.1460767 2.3418052e-38
-12.328004 14.329708 3.0917141 2.3418052e-38
-12.295481 14.051572 1.9325143 2.3418052e-38
-11.835863 14.254198 2.9343462 2.3418052e-38
-11.310406 14.251073 3.126102 2.3418052e-38
-10.972867 14.270794 3.2589099 2.3418052e-38
-12.494703 14.631907 4.4828329 2.3418052e-38
-12.573849 14.457137 3.7653093 2.3418052e-38
-12.57967 14.501206 3.8920064 2.3418052e-38
-12.737496 14.205456 2.2763803 2.3418052e-38
-11.885836 14.132587 1.4919804 2.3418052e-38
-10.29283 14.400224 3.3553741 2.3418052e-38
-12.655911 14.414753 2.4176483 2.3418052e-38
-11.837342 14.684157 2.976361 2.3418052e-38
-10.93433 14.356206 0.76551813 2.3418052e-38
-10.511616 14.349543 0.77470118 2.3418052e-38
-10.113066 14.364236 0.90771818 2.3418052e-38
-9.7890329 14.393159 1.1188834 2.3418052e-38
-9.26686 14.578168 2.1548486 2.3418052e-38
-9.4373989 14.470183 1.5668868 2.3418052e-38
-11.751257 14.797048 3.0576475 2.3418052e-38
-12.154583 14.647457 2.0540984 2.3418052e-38
-11.482347 14.85175 3.181145 2.3418052e-38
-11.840381 14.551592 1.4465271 2.3418052e-38
-10.847391 14.872301 3.3646262 2.3418052e-38
-10.583454 14.86155 3.3865392 2.3418052e-38
-11.432048 14.409719 0.97862279 2.3418052e-38
-10.221605 14.846157 3.3722091 2.3418052e-38
-9.6938524 14.81231 3.1943243 2.3418052e-38
-9.3557148 14.708666 2.7962251 2.3418052e-38
-9.2816648 14.654817 2.5550354 2.3418052e-38
-12.742346 15.066136 4.5219293 2.3418052e-38
-12.698553 15.002184 3.7751865 2.3418052e-38
-13.157743 14.780985 2.5917161 2.3418052e-38
-12.624175 14.981147 3.6209962 2.3418052e-38
-12.960353 14.827523 2.6045513 2.3418052e-38
-12.273552 14.881951 3.1736202 2.3418052e-38
-12.224449 14.70953 2.1923819 2.3418052e-38
-11.559782 14.953068 3.2077334 2.3418052e-38
-13.616534 15.318105 5.3514371 2.3418052e-38
-13.539965 15.312771 5.3496785 2.3418052e-38
-12.852284 15.201196 4.5118299 2.3418052e-38
-12.83656 15.16663 4.4006424 2.3418052e-38
-12.589309 14.852592 2.5317421 2.3418052e-38
-13.06574 15.057809 2.7117226 2.3418052e-38
-13.595711 15.204412 2.9376373 2.3418052e-38
-10.786638 15.26489 3.4093025 2.3418052e-38
-13.340497 15.571097 4.6380839 2.3418052e-38
-13.098498 15.380898 3.8930635 2.3418052e-38
-11.417192 14.964108 0.85385478 2.3418052e-38
-10.933519 14.909211 0.63835484 2.3418052e-38
-10.417229 14.905629 0.66728884 2.3418052e-38
-10.118428 14.921833 0.77753627 2.3418052e-38
-9.2392569 15.2441 2.5954309 2.3418052e-38
-9.2504683 15.255101 2.6399665 2.3418052e-38
-9.7758684 14.950721 1.0014975 2.3418052e-38
-9.4140787 15.028431 1.4538653 2.3418052e-38
-9.2288895 15.128658 2.0050843 2.3418052e-38
-14.101686 15.383312 3.1370537 2.3418052e-38
-13.559593 15.60162 4.126956 2.3418052e-38
-13.325493 15.419611 3.3760481 2.3418052e-38
-12.911496 15.412099 2.919502 2.3418052e-38
-12.53503 15.349682 2.4872842 2.3418052e-38
-12.061809 15.423011 3.4237413 2.3418052e-38
-12.003265 15.499986 3.4435461 2.3418052e-38
-12.221666 15.256574 2.1177924 2.3418052e-38
-12.132263 15.213146 1.9692922 2.3418052e-38
-11.343307 15.492657 3.435498 2.3418052e-38
-11.813079 15.078416 1.3396752 2.3418052e-38
-11.847857 15.091126 1.4016362 2.3418052e-38
-10.813967 15.455652 3.4124255 2.3418052e-38
-10.146871 15.429935 3.3578985 2.3418052e-38
-9.6358509 15.387547 3.1771452 2.3418052e-38
-13.826907 15.793163 4.8741341 2.3418052e-38
-14.403465 15.539412 3.2552392 2.3418052e-38
-14.038683 15.628312 3.7015119 2.3418052e-38
-13.827519 15.538161 3.61028 2.3418052e-38
-12.848379 15.502626 3.1168718 2.3418052e-38
-12.745163 15.527233 3.287446 2.3418052e-38
-12.146133 15.505802 3.4419076 2.3418052e-38
-9.2155781 15.424204 2.6015754 2.3418052e-38
-14.022392 15.8864 4.9721498 2.3418052e-38
-14.594648 15.651577 3.3318806 2.3418052e-38
-13.933966 15.859626 4.5996823 2.3418052e-38
-13.905162 15.775158 4.2725801 2.3418052e-38
-14.333302 15.784077 3.8240426 2.3418052e-38
-14.06132 15.865399 4.3384428 2.3418052e-38
-11.806597 15.474372 1.2762673 2.3418052e-38
-9.7636566 15.50938 0.91702825 2.3418052e-38
-11.77618 15.636037 1.2096741 2.3418052e-38
-11.807032 15.647061 1.2608495 2.3418052e-38
-11.394471 15.529716 0.7685169 2.3418052e-38
-10.888072 15.4731 0.56145698 2.3418052e-38
-9.5859165 15.949436 3.1263368 2.3418052e-38
-10.363942 15.464841 0.6058234 2.3418052e-38
-10.223918 15.471079 0.65223986 2.3418052e-38
-9.1983013 15.84908 2.6909785 2.3418052e-38
-9.1391611 15.803049 2.4869015 2.3418052e-38
-9.1671429 15.680566 1.8579367 2.3418052e-38
-9.3904028 15.586237 1.3380152 2.3418052e-38
-12.512498 15.977859 2.8610864 2.3418052e-38
-12.261871 16.030607 3.3091533 2.3418052e-38
-12.448468 15.917713 2.5017548 2.3418052e-38
-11.813124 16.074007 3.4445243 2.3418052e-38
-12.228609 15.820195 2.0651343 2.3418052e-38
-12.116682 15.771077 1.8542451 2.3418052e-38
-11.301394 16.054985 3.419924 2.3418052e-38
-10.751432 16.036428 3.3399527 2.3418052e-38
-10.115346 15.990635 3.2800357 2.3418052e-38
-10.790729 16.057156 0.54893643 2.3418052e-38
-10.616129 16.054338 0.55680996 2.3418052e-38
-10.091852 16.06241 0.70576656 2.3418052e-38
-9.8346119 16.077589 0.84835035 2.3418052e-38
-9.4069977 16.147049 1.247898 2.3418052e-38
-9.148612 16.240496 1.7492102 2.3418052e-38
-12.156881 16.372093 1.9438332 2.3418052e-38
-12.087423 16.336033 1.777694 2.3418052e-38
-11.779974 16.211464 1.1742936 2.3418052e-38
-11.705043 16.186749 1.0613453 2.3418052e-38
-10.654338 16.573748 3.2031016 2.3418052e-38
-11.352265 16.10025 0.71475488 2.3418052e-38
-10.105666 16.54645 3.1579204 2.3418052e-38
-9.5630226 16.499542 3.0130477 2.3418052e-38
-9.1978807 16.412861 2.6458249 2.3418052e-38
-9.0964203 16.346085 2.3088558 2.3418052e-38
-12.295652 16.510778 2.6571312 2.3418052e-38
-12.057734 16.581877 3.1319888 2.3418052e-38
-12.299059 16.499413 2.5843294 2.3418052e-38
-12.27212 16.580154 2.6282485 2.3418052e-38
-11.890392 16.598614 3.226239 2.3418052e-38
-11.311322 16.605545 3.2771025 2.3418052e-38
-10.758451 16.579397 3.2133415 2.3418052e-38
-11.99179 16.718557 3.0933771 2.3418052e-38
-9.9455757 16.383038 0.78868586 2.3418052e-38
-10.738117 16.48632 0.54910004 2.3418052e-38
-11.313468 16.659306 0.65228713 2.3418052e-38
-10.754604 16.633106 0.54281133 2.3418052e-38
-10.72419 16.633446 0.54499179 2.3418052e-38
-10.005 16.662388 0.75631166 2.3418052e-38
-9.9098301 16.665188 0.80665785 2.3418052e-38
-9.1691437 16.93391 2.3042431 2.3418052e-38
-9.4547482 16.713112 1.1719723 2.3418052e-38
-9.1838884 16.809093 1.670071 2.3418052e-38
-12.135994 17.054676 2.4716415 2.3418052e-38
-11.849642 17.135338 2.9494083 2.3418052e-38
-12.072098 16.922407 1.8124181 2.3418052e-38
-12.037767 16.899607 1.7052764 2.3418052e-38
-11.330191 17.153744 3.1062062 2.3418052e-38
-11.740283 16.765268 1.065209 2.3418052e-38
-10.750875 17.13352 3.0933421 2.3418052e-38
-11.691519 16.749954 0.99304926 2.3418052e-38
-10.634212 17.12829 3.0857911 2.3418052e-38
-10.095575 17.102257 3.035733 2.3418052e-38
-9.5605822 17.049791 2.8552718 2.3418052e-38
-12.020272 17.350969 1.6920502 2.3418052e-38
-11.648996 17.308899 0.89746171 2.3418052e-38
-11.704599 17.325953 0.97429067 2.3418052e-38
-11.27566 17.228546 0.58374822 2.3418052e-38
-10.808281 17.202507 0.48827791 2.3418052e-38
-10.667578 17.202995 0.49788672 2.3418052e-38
-9.568058 17.604116 2.7235923 2.3418052e-38
-10.036876 17.221291 0.67990446 2.3418052e-38
-9.238409 17.494944 2.2123113 2.3418052e-38
-9.9012156 17.227764 0.74729067 2.3418052e-38
-9.2126236 17.47352 2.1010256 2.3418052e-38
-9.473485 17.276615 1.0861439 2.3418052e-38
-9.2252932 17.37278 1.5854218 2.3418052e-38
-12.046687 17.601608 2.3380075 2.3418052e-38
-11.788942 17.675682 2.7735775 2.3418052e-38
-12.021899 17.479813 1.7004977 2.3418052e-38
-12.010628 17.471046 1.6573167 2.3418052e-38
-11.292694 17.711189 2.9880545 2.3418052e-38
-10.709828 17.702858 3.0254521 2.3418052e-38
-10.061714 17.667412 2.9539862 2.3418052e-38
-9.9963446 17.771585 0.56131864 2.3418052e-38
-9.8885603 17.779627 0.61282587 2.3418052e-38
-9.4503841 17.839472 0.97670329 2.3418052e-38
-12.000627 18.021536 1.5075434 2.3418052e-38
-12.010369 17.958551 1.5708869 2.3418052e-38
-11.696591 17.888577 0.88929713 2.3418052e-38
-11.411726 17.82303 0.60558569 2.3418052e-38
-11.240902 17.800077 0.50394756 2.3418052e-38
-10.009341 18.240654 2.9110706 2.3418052e-38
-10.860782 17.769018 0.40223932 2.3418052e-38
-10.644244 17.76059 0.40013033 2.3418052e-38
-9.5440979 18.16893 2.6331992 2.3418052e-38
-9.258976 18.057436 2.1200078 2.3418052e-38
-9.2199345 18.016588 1.9102249 2.3418052e-38
-9.2327595 17.935692 1.4957907 2.3418052e-38
-12.024675 18.159933 2.2125053 2.3418052e-38
-11.755358 18.24435 2.6624725 2.3418052e-38
-11.255638 18.278843 2.9223087 2.3418052e-38
-10.907069 18.274446 2.9849317 2.3418052e-38
-10.632675 18.26844 2.9983089 2.3418052e-38
-9.9155073 18.136093 0.48446256 2.3418052e-38
-11.235042 18.353283 0.37158808 2.3418052e-38
-10.70628 18.316879 0.25837085 2.3418052e-38
-9.9324045 18.322836 0.41644439 2.3418052e-38
-9.8790274 18.326836 0.44206545 2.3418052e-38
-9.1969748 18.553238 1.6977469 2.3418052e-38
-9.2134476 18.493073 1.3901694 2.3418052e-38
-9.4112453 18.394577 0.85003471 2.3418052e-38
-12.031359 18.719337 2.1133909 2.3418052e-38
-12.06868 18.608921 1.5228184 2.3418052e-38
-11.253293 18.841797 2.8459327 2.3418052e-38
-12.015026 18.56123 1.2821702 2.3418052e-38
-11.044105 18.846321 2.9008214 2.3418052e-38
-11.711554 18.43359 0.73040009 2.3418052e-38
-10.523191 18.844219 2.9521902 2.3418052e-38
-11.561482 18.399908 0.57949048 2.3418052e-38
-9.9627066 18.808151 2.8637891 2.3418052e-38
-9.5076799 18.734505 2.5606179 2.3418052e-38
-9.2417765 18.619919 2.0276208 2.3418052e-38
-11.735458 18.807634 2.5817144 2.3418052e-38
-11.720151 18.677511 0.633169 2.3418052e-38
-11.870495 19.016499 0.68458861 2.3418052e-38
-11.726889 18.977844 0.50829905 2.3418052e-38
-11.251493 18.903273 0.19919656 2.3418052e-38
-10.669582 18.865479 0.10621879 2.3418052e-38
-9.2097111 19.173994 1.900835 2.3418052e-38
-9.9486132 18.874804 0.26320669 2.3418052e-38
-9.8112516 18.884422 0.33127633 2.3418052e-38
-9.1759138 19.128075 1.6715416 2.3418052e-38
-9.3792095 18.949169 0.73304886 2.3418052e-38
-9.1886444 19.048723 1.266996 2.3418052e-38
-12.061646 19.278198 2.0237319 2.3418052e-38
-11.766024 19.374046 2.4950585 2.3418052e-38
-12.115831 19.165371 1.4177506 2.3418052e-38
-11.255599 19.403254 2.7599461 2.3418052e-38
-12.06042 19.103888 1.1017178 2.3418052e-38
-10.888222 19.405838 2.8348391 2.3418052e-38
-10.511215 19.403711 2.8601143 2.3418052e-38
-9.935133 19.369164 2.7749639 2.3418052e-38
-9.4821415 19.296396 2.4709334 2.3418052e-38
-9.8687439 19.444542 0.2172945 2.3418052e-38
-9.3810482 19.508614 0.64064121 2.3418052e-38
-11.836856 19.879454 2.4130957 2.3418052e-38
-12.079599 19.650558 0.92749351 2.3418052e-38
-11.974139 19.596869 0.6613881 2.3418052e-38
-11.72527 19.526085 0.33765694 2.3418052e-38
-11.249344 19.456575 0.067459799 2.3418052e-38
-9.9235992 19.925446 2.6558425 2.3418052e-38
-10.650901 19.426659 0.0055081099 2.3418052e-38
-9.4688187 19.853104 2.3610046 2.3418052e-38
-9.1935358 19.734644 1.796729 2.3418052e-38
-9.8703089 19.472292 0.21352921 2.3418052e-38
-9.1621685 19.691589 1.5857967 2.3418052e-38
-9.1811399 19.607164 1.1552095 2.3418052e-38
-12.109848 19.838253 1.9352747 2.3418052e-38
-12.071164 19.879066 2.0605311 2.3418052e-38
-11.845914 19.945414 2.4012451 2.3418052e-38
-11.828877 19.946848 2.4169014 2.3418052e-38
-12.146957 19.726109 1.3141837 2.3418052e-38
-11.201513 19.970953 2.6944757 2.3418052e-38
-10.947646 19.968056 2.7278078 2.3418052e-38
-10.551466 19.961294 2.7428319 2.3418052e-38
-11.209826 20.020527 0.010427211 2.3418052e-38
-10.724257 19.995995 -0.049448129 2.3418052e-38
-10.599389 19.994959 -0.04311689 2.3418052e-38
-9.9701862 20.013268 0.11305524 2.3418052e-38
-9.7743874 20.024252 0.21579894 2.3418052e-38
-9.1569452 20.232906 1.3837603 2.3418052e-38
-9.4066257 20.072109 0.55477506 2.3418052e-38
-9.1868229 20.17168 1.069382 2.3418052e-38
-12.146911 20.296253 1.2449616 2.3418052e-38
-12.056427 20.205774 0.80154729 2.3418052e-38
-11.021695 20.532333 2.6209676 2.3418052e-38
-11.918875 20.14534 0.51817739 2.3418052e-38
-11.694712 20.087658 0.26538846 2.3418052e-38
-10.522111 20.519918 2.632226 2.3418052e-38
-9.9112492 20.483072 2.538837 2.3418052e-38
-9.4616423 20.411301 2.2476892 2.3418052e-38
-9.1877565 20.291739 1.6828024 2.3418052e-38
-12.12199 20.41206 1.831134 2.3418052e-38
-12.099475 20.427408 1.9164898 2.3418052e-38
-11.874539 20.494858 2.2966688 2.3418052e-38
-11.793673 20.506943 2.3675952 2.3418052e-38
-11.170036 20.533798 2.6044369 2.3418052e-38
-11.826807 20.883354 2.2373102 2.3418052e-38
-11.661244 20.599119 0.24815117 2.3418052e-38
-11.138 20.584467 -0.02721661 2.3418052e-38
-10.544661 20.564507 -0.096737042 2.3418052e-38
-9.9177036 20.574484 0.051459126 2.3418052e-38
-9.1672363 20.851292 1.5781521 2.3418052e-38
-9.8194027 20.580074 0.1002346 2.3418052e-38
-9.1370716 20.785315 1.2592701 2.3418052e-38
-9.4117489 20.635323 0.44114187 2.3418052e-38
-9.1698055 20.729836 0.9687196 2.3418052e-38
-12.088335 20.974688 1.7137698 2.3418052e-38
-11.803112 21.054825 2.2076116 2.3418052e-38
-12.111252 20.852856 1.1278622 2.3418052e-38
-11.180221 21.091675 2.4825442 2.3418052e-38
-11.997902 20.758644 0.6994704 2.3418052e-38
-10.982424 21.091118 2.5113852 2.3418052e-38
-11.659178 20.671858 0.24729438 2.3418052e-38
-10.478624 21.079424 2.5337529 2.3418052e-38
-9.8890705 21.043276 2.4383385 2.3418052e-38
-9.435461 20.970526 2.1344225 2.3418052e-38
-11.956891 21.331085 0.65790409 2.3418052e-38
-11.612418 21.23617 0.18608013 2.3418052e-38
-11.110348 21.17667 -0.1042634 2.3418052e-38
-10.529332 21.124023 -0.19514784 2.3418052e-38
-9.3994703 21.530134 2.0366108 2.3418052e-38
-9.9002094 21.12886 -0.073399924 2.3418052e-38
-9.7936373 21.1353 -0.025669675 2.3418052e-38
-9.1113329 21.404312 1.4511045 2.3418052e-38
-9.0891113 21.377441 1.3178866 2.3418052e-38
-9.362998 21.189093 0.31240895 2.3418052e-38
-9.1145039 21.280365 0.82571292 2.3418052e-38
-12.054307 21.529671 1.6122423 2.3418052e-38
-11.774483 21.609961 2.081152 2.3418052e-38
-12.058624 21.405397 0.98478782 2.3418052e-38
-11.201956 21.647219 2.3586996 2.3418052e-38
-10.992627 21.648491 2.3992469 2.3418052e-38
-10.432681 21.640434 2.4384286 2.3418052e-38
-9.8622265 21.605019 2.3476985 2.3418052e-38
-11.77444 21.908249 2.0144994 2.3418052e-38
-10.895237 21.699842 -0.27989054 2.3418052e-38
-10.505353 21.679384 -0.32016692 2.3418052e-38
-9.8476944 21.683962 -0.19360791 2.3418052e-38
-9.0594034 21.867891 1.32164 2.3418052e-38
-9.7996883 21.686998 -0.17416745 2.3418052e-38
-9.0527267 21.832373 0.67273724 2.3418052e-38
-9.2941637 21.74449 0.18761249 2.3418052e-38
-11.98064 21.955782 0.84084958 2.3418052e-38
-11.923714 21.915579 0.65465719 2.3418052e-38
-11.548007 21.785624 0.065361366 2.3418052e-38
-10.410687 22.201399 2.3363092 2.3418052e-38
-11.098926 21.717697 -0.21739206 2.3418052e-38
-9.8401194 22.165302 2.2477219 2.3418052e-38
-9.3784885 22.090462 1.9433908 2.3418052e-38
-9.0539618 21.95554 1.3060677 2.3418052e-38
-12.02382 22.085737 1.4917372 2.3418052e-38
-11.972002 22.115576 1.6698962 2.3418052e-38
-11.765384 22.170378 1.9690503 2.3418052e-38
-11.213983 22.204386 2.2517202 2.3418052e-38
-10.969978 22.207815 2.2996109 2.3418052e-38
-9.0435886 22.20586 1.2563138 2.3418052e-38
-11.356264 22.314413 -0.18125501 2.3418052e-38
-11.084513 22.274891 -0.33716515 2.3418052e-38
-10.867414 22.255116 -0.40548718 2.3418052e-38
-10.500241 22.236641 -0.43953413 2.3418052e-38
-9.806881 22.243273 -0.29981938 2.3418052e-38
-9.2592678 22.298689 0.068105459 2.3418052e-38
-11.548165 22.355742 -0.00081028556 2.3418052e-38
19.456692 -22.536497 -1.919878 9.1476764e-41
18.685328 -22.309654 -2.388072 9.1476764e-41
19.382145 -22.083189 -1.2828442 9.1476764e-41
19.659678 -22.331596 -2.6148992 9.1476764e-41
19.952871 -21.95833 -1.0714147 9.1476764e-41
20.292475 -21.860094 -1.1463766 9.1476764e-41
18.393097 -21.949291 -2.1377072 9.1476764e-41
18.763077 -21.910778 -1.6721668 9.1476764e-41
19.195881 -21.824871 -1.2723843 9.1476764e-41
18.849812 -22.125395 -2.9814298 9.1476764e-41
19.836414 -21.75219 -1.0135015 9.1476764e-41
18.974667 -22.127201 -2.991046 9.1476764e-41
19.995926 -21.756254 -1.0205358 9.1476764e-41
19.715042 -22.110582 -2.7905874 9.1476764e-41
20.450775 -21.804577 -1.262293 9.1476764e-41
20.566738 -21.834557 -1.4481024 9.1476764e-41
20.276571 -22.033318 -2.4209065 9.1476764e-41
20.571392 -21.948399 -1.9878813 9.1476764e-41
18.251612 -21.925158 -2.5965934 9.1476764e-41
18.44276 -22.005486 -2.9028013 9.1476764e-41
18.956823 -21.993004 -3.1044974 9.1476764e-41
19.739075 -22.010027 -2.8345542 9.1476764e-41
19.176889 -21.635624 -1.2408962 9.1476764e-41
18.91568 -21.625303 -3.3014555 9.1476764e-41
19.075184 -21.630083 -3.2745192 9.1476764e-41
20.482922 -21.339989 -1.3918867 9.1476764e-41
19.727642 -21.59293 -2.9747062 9.1476764e-41
20.480616 -21.29224 -1.4243238 9.1476764e-41
19.860962 -21.572618 -2.882591 9.1476764e-41
20.265234 -21.50161 -2.5268073 9.1476764e-41
20.553125 -21.418724 -2.0487421 9.1476764e-41
18.200108 -21.37952 -2.1533284 9.1476764e-41
18.078232 -21.447069 -2.666718 9.1476764e-41
18.580698 -21.304668 -1.6788037 9.1476764e-41
19.090687 -21.232353 -1.2791486 9.1476764e-41
18.346964 -21.554075 -3.166728 9.1476764e-41
19.290836 -21.212658 -1.1717052 9.1476764e-41
19.889399 -21.200901 -1.0648581 9.1476764e-41
20.018616 -21.209667 -1.0894163 9.1476764e-41
20.432652 -21.276249 -1.3565252 9.1476764e-41
20.010456 -21.104179 -1.1291403 9.1476764e-41
20.139023 -20.964872 -2.5695601 9.1476764e-41
20.388834 -20.90263 -1.9731779 9.1476764e-41
18.159466 -20.922386 -2.8692014 9.1476764e-41
18.360203 -21.005491 -3.2504835 9.1476764e-41
18.890896 -21.059879 -3.4465537 9.1476764e-41
19.12322 -21.061749 -3.404032 9.1476764e-41
19.689991 -21.016148 -3.063992 9.1476764e-41
20.344685 -20.781096 -1.952548 9.1476764e-41
20.131557 -20.921831 -2.5732863 9.1476764e-41
18.242252 -20.807554 -2.2704542 9.1476764e-41
18.566488 -20.727306 -1.8044163 9.1476764e-41
19.045237 -20.669176 -1.429491 9.1476764e-41
19.347452 -20.652111 -1.3052609 9.1476764e-41
19.964792 -20.669498 -1.3434309 9.1476764e-41
19.14006 -20.507133 -3.5130849 9.1476764e-41
19.746975 -20.45537 -3.1426344 9.1476764e-41
19.903622 -20.422428 -2.9737577 9.1476764e-41
20.109165 -20.427727 -2.6369154 9.1476764e-41
18.408463 -20.264982 -2.4690237 9.1476764e-41
18.705235 -20.178679 -1.9622601 9.1476764e-41
18.397861 -20.395409 -3.1093123 9.1476764e-41
19.183933 -20.125359 -1.5934682 9.1476764e-41
18.442486 -20.41795 -3.2076774 9.1476764e-41
19.300791 -20.118412 -1.5483166 9.1476764e-41
18.91827 -20.494871 -3.5291784 9.1476764e-41
19.91773 -20.143003 -1.5793859 9.1476764e-41
20.23826 -20.248375 -2.0676596 9.1476764e-41
20.230053 -20.299248 -2.3202422 9.1476764e-41
18.444687 -20.277311 -3.1709745 9.1476764e-41
19.798223 -20.250811 -3.1749806 9.1476764e-41
19.260983 -19.97072 -1.6246548 9.1476764e-41
20.265484 -19.982883 -2.1693349 9.1476764e-41
18.447912 -19.844927 -3.1845305 9.1476764e-41
18.475986 -19.866154 -3.2894208 9.1476764e-41
18.90362 -19.938047 -3.6953962 9.1476764e-41
19.314419 -19.959867 -3.6530097 9.1476764e-41
20.303104 -19.686047 -2.1623044 9.1476764e-41
19.725702 -19.918072 -3.3982253 9.1476764e-41
19.867874 -19.889971 -3.2578185 9.1476764e-41
20.307941 -19.702671 -2.2448072 9.1476764e-41
20.177395 -19.805077 -2.7951148 9.1476764e-41
18.494421 -19.735685 -2.6378303 9.1476764e-41
18.815704 -19.634727 -2.0883887 9.1476764e-41
19.218603 -19.57996 -1.7576764 9.1476764e-41
19.348135 -19.5741 -1.6935399 9.1476764e-41
19.949804 -19.581516 -1.6587461 9.1476764e-41
18.430658 -19.669933 -3.2986472 9.1476764e-41
19.268372 -19.139982 -1.7439457 9.1476764e-41
18.438076 -19.16853 -2.6775281 9.1476764e-41
18.364697 -19.343157 -3.6748586 9.1476764e-41
19.285717 -19.009911 -1.7179189 9.1476764e-41
18.834061 -19.412188 -3.9789357 9.1476764e-41
20.041967 -19.006199 -1.6144072 9.1476764e-41
19.472483 -19.394091 -3.7722738 9.1476764e-41
19.624201 -19.379681 -3.6533644 9.1476764e-41
20.355652 -19.129955 -2.325212 9.1476764e-41
19.885427 -19.333355 -3.3702636 9.1476764e-41
20.178238 -19.247667 -2.8894706 9.1476764e-41
18.293219 -19.231524 -3.1906133 9.1476764e-41
18.729029 -19.066923 -2.1803892 9.1476764e-41
19.222406 -19.009251 -1.7532673 9.1476764e-41
20.038696 -18.981895 -1.6078771 9.1476764e-41
20.258615 -19.015179 -1.7853956 9.1476764e-41
18.268316 -19.095873 -3.9080939 9.1476764e-41
18.79718 -19.075731 -4.2075925 9.1476764e-41
20.126202 -18.824389 -2.9341383 9.1476764e-41
18.786236 -18.940239 -4.305048 9.1476764e-41
18.957739 -18.90167 -4.2719493 9.1476764e-41
19.827259 -18.808819 -3.4386091 9.1476764e-41
18.309912 -18.584642 -2.7112556 9.1476764e-41
18.408726 -18.530552 -2.4614356 9.1476764e-41
18.546759 -18.479961 -2.2086623 9.1476764e-41
18.139502 -18.666142 -3.2391691 9.1476764e-41
18.043621 -18.751377 -3.7876661 9.1476764e-41
19.024958 -18.426653 -1.7550427 9.1476764e-41
18.183884 -18.873455 -4.1313925 9.1476764e-41
19.429972 -18.406902 -1.5501279 9.1476764e-41
19.687679 -18.378716 -1.4836254 9.1476764e-41
20.133972 -18.387804 -1.5567815 9.1476764e-41
20.367197 -18.472582 -1.8722044 9.1476764e-41
19.478262 -18.841112 -3.8898413 9.1476764e-41
20.100363 -18.672611 -2.9512885 9.1476764e-41
20.334604 -18.568571 -2.4086699 9.1476764e-41
18.762075 -18.419994 -1.9548917 9.1476764e-41
18.121937 -18.615837 -4.4164243 9.1476764e-41
19.579525 -18.060331 -1.5032628 9.1476764e-41
17.915457 -18.239098 -3.9073491 9.1476764e-41
18.537363 -18.393816 -4.7686939 9.1476764e-41
18.603256 -18.408587 -4.7440014 9.1476764e-41
19.090511 -18.368467 -4.4552627 9.1476764e-41
19.440491 -18.28524 -4.0077271 9.1476764e-41
19.731134 -18.185814 -3.5063567 9.1476764e-41
20.002005 -18.102568 -3.0062399 9.1476764e-41
18.276821 -18.007322 -2.7507505 9.1476764e-41
18.455149 -17.900358 -2.2763395 9.1476764e-41
18.264439 -18.017735 -2.7967315 9.1476764e-41
18.811798 -17.841576 -1.8634678 9.1476764e-41
18.102121 -18.131138 -3.3643012 9.1476764e-41
18.870647 -17.83709 -1.8198674 9.1476764e-41
17.90414 -18.286858 -4.421948 9.1476764e-41
18.039749 -18.293797 -4.6868715 9.1476764e-41
19.587759 -17.802874 -1.5403866 9.1476764e-41
18.564489 -18.349211 -4.7954187 9.1476764e-41
20.113419 -17.87216 -1.6652365 9.1476764e-41
20.29072 -17.919493 -1.9593809 9.1476764e-41
20.242865 -17.992033 -2.4693511 9.1476764e-41
19.591488 -17.638384 -1.5946774 9.1476764e-41
20.04954 -17.462273 -1.935024 9.1476764e-41
18.287405 -17.561466 -2.8848219 9.1476764e-41
17.890827 -17.698284 -4.0302305 9.1476764e-41
18.13768 -17.578093 -3.4963026 9.1476764e-41
17.77269 -17.780571 -4.5631428 9.1476764e-41
17.940424 -17.821709 -4.9588919 9.1476764e-41
18.490585 -17.882586 -5.083015 9.1476764e-41
18.722906 -17.879143 -4.9961491 9.1476764e-41
19.16185 -17.809734 -4.581398 9.1476764e-41
19.419962 -17.717533 -4.0971527 9.1476764e-41
19.674358 -17.614367 -3.5724318 9.1476764e-41
19.918499 -17.528324 -3.0634947 9.1476764e-41
18.480616 -17.357403 -2.384213 9.1476764e-41
18.296661 -17.44735 -2.902014 9.1476764e-41
18.681149 -17.301634 -2.1054213 9.1476764e-41
18.928839 -17.265026 -1.9046178 9.1476764e-41
19.552265 -17.254436 -1.7518955 9.1476764e-41
20.045582 -17.332615 -2.119113 9.1476764e-41
20.084646 -17.393608 -2.4644017 9.1476764e-41
18.481003 -17.346104 -5.2764697 9.1476764e-41
18.82696 -17.312101 -5.098176 9.1476764e-41
19.17811 -17.248333 -4.6858974 9.1476764e-41
18.320654 -16.891911 -3.0148253 9.1476764e-41
17.662846 -17.181114 -4.5736103 9.1476764e-41
17.886143 -17.137602 -4.1023693 9.1476764e-41
18.139685 -17.021544 -3.5859075 9.1476764e-41
18.260366 -16.927849 -3.2009788 9.1476764e-41
17.864843 -17.318188 -5.2149777 9.1476764e-41
19.520069 -16.733873 -1.9727284 9.1476764e-41
19.918676 -16.815416 -2.5171201 9.1476764e-41
19.419876 -17.152611 -4.1810021 9.1476764e-41
19.647034 -17.057951 -3.6602674 9.1476764e-41
19.84734 -16.980034 -3.1572614 9.1476764e-41
18.574289 -16.774107 -2.4796224 9.1476764e-41
18.97434 -16.720385 -2.0581305 9.1476764e-41
17.833582 -17.092833 -5.340394 9.1476764e-41
17.583897 -16.828709 -4.5983157 9.1476764e-41
17.418411 -16.742785 -5.10853 9.1476764e-41
18.107122 -16.491636 -3.6282308 9.1476764e-41
17.791569 -16.788042 -5.5066981 9.1476764e-41
18.052258 -16.805387 -5.5219297 9.1476764e-41
18.490936 -16.787737 -5.3977995 9.1476764e-41
18.780518 -16.758268 -5.2084026 9.1476764e-41
19.159824 -16.68593 -4.7677073 9.1476764e-41
19.406635 -16.58839 -4.2732401 9.1476764e-41
19.614258 -16.491917 -3.7448034 9.1476764e-41
17.563595 -16.605522 -4.5804071 9.1476764e-41
18.328821 -16.330162 -3.0950627 9.1476764e-41
17.393154 -16.674809 -5.1859617 9.1476764e-41
17.376606 -16.650852 -5.0921183 9.1476764e-41
17.846069 -16.55048 -4.1529851 9.1476764e-41
18.095707 -16.428465 -3.6498511 9.1476764e-41
18.628626 -16.241747 -2.5779967 9.1476764e-41
18.995306 -16.172716 -2.2006834 9.1476764e-41
19.502869 -16.187572 -2.1311445 9.1476764e-41
19.833979 -16.27437 -2.596436 9.1476764e-41
19.850552 -16.313244 -2.8460295 9.1476764e-41
19.797161 -16.390654 -3.203784 9.1476764e-41
17.493 -16.043774 -4.696599 9.1476764e-41
17.580893 -16.036833 -4.5879598 9.1476764e-41
17.837086 -15.9726 -4.2387586 9.1476764e-41
17.279993 -16.168413 -5.5454893 9.1476764e-41
17.733805 -16.24168 -5.7380023 9.1476764e-41
18.125961 -16.250317 -5.6675677 9.1476764e-41
19.805628 -15.728483 -2.7276213 9.1476764e-41
18.699249 -16.207445 -5.3252316 9.1476764e-41
19.542404 -15.927348 -3.8154013 9.1476764e-41
19.11908 -16.119286 -4.8593898 9.1476764e-41
19.364338 -16.028166 -4.3535104 9.1476764e-41
17.225266 -16.078569 -5.1211414 9.1476764e-41
18.061611 -15.846446 -3.7147024 9.1476764e-41
18.279007 -15.766808 -3.2000296 9.1476764e-41
18.331293 -15.76558 -3.1059446 9.1476764e-41
17.982906 -15.908122 -3.9340277 9.1476764e-41
18.631016 -15.708421 -2.6406217 9.1476764e-41
19.049286 -15.619462 -2.2413039 9.1476764e-41
19.530416 -15.605156 -2.2229123 9.1476764e-41
19.730122 -15.804014 -3.2523046 9.1476764e-41
19.45994 -15.511033 -3.8346014 9.1476764e-41
17.472813 -15.555985 -4.7909298 9.1476764e-41
18.528339 -15.251335 -2.7092557 9.1476764e-41
19.084524 -15.567882 -4.9339452 9.1476764e-41
17.153849 -15.531438 -5.2197618 9.1476764e-41
18.494396 -15.13986 -2.7251792 9.1476764e-41
17.462162 -15.513725 -4.8054838 9.1476764e-41
17.956257 -15.356053 -4.0153012 9.1476764e-41
17.83028 -15.430486 -4.3326216 9.1476764e-41
18.883617 -15.094029 -2.294203 9.1476764e-41
17.2341 -15.635008 -5.7236996 9.1476764e-41
17.746326 -15.696336 -5.8746557 9.1476764e-41
18.11322 -15.68499 -5.7747784 9.1476764e-41
19.783356 -15.164927 -2.8131368 9.1476764e-41
19.410114 -15.304106 -3.8252165 9.1476764e-41
19.63118 -15.228318 -3.3093152 9.1476764e-41
18.67831 -15.622392 -5.4069104 9.1476764e-41
18.711071 -15.617912 -5.3775859 9.1476764e-41
19.330002 -15.387968 -4.1568599 9.1476764e-41
19.281219 -15.469358 -4.4188533 9.1476764e-41
18.187714 -15.175901 -3.2665753 9.1476764e-41
18.011036 -15.281523 -3.7966001 9.1476764e-41
18.981689 -15.014024 -2.2193427 9.1476764e-41
19.583731 -15.03798 -2.2580123 9.1476764e-41
17.402699 -15.159135 -4.8453937 9.1476764e-41
19.16535 -15.025475 -4.4352622 9.1476764e-41
17.352011 -14.965068 -4.8470364 9.1476764e-41
17.70953 -14.878587 -4.3689656 9.1476764e-41
17.733271 -14.950486 -4.3685389 9.1476764e-41
17.784763 -15.131706 -5.9461851 9.1476764e-41
18.098761 -15.115623 -5.8431773 9.1476764e-41
18.646896 -15.058525 -5.4657621 9.1476764e-41
18.688797 -15.056023 -5.4244595 9.1476764e-41
19.113876 -14.902238 -4.5042419 9.1476764e-41
19.006369 -15.036888 -4.9939547 9.1476764e-41
17.047998 -14.962669 -5.2783656 9.1476764e-41
18.073498 -14.616649 -3.3044386 9.1476764e-41
18.335464 -14.565239 -2.7586064 9.1476764e-41
18.645782 -14.450109 -2.3103118 9.1476764e-41
17.884832 -14.713524 -3.8374465 9.1476764e-41
17.219837 -15.090202 -5.8443346 9.1476764e-41
19.599035 -14.486094 -2.3787656 9.1476764e-41
19.47172 -14.64705 -3.3403411 9.1476764e-41
19.684031 -14.589116 -2.8551373 9.1476764e-41
19.113684 -14.866338 -4.431179 9.1476764e-41
19.122168 -14.412889 -2.1108191 9.1476764e-41
19.202541 -14.662413 -3.8024421 9.1476764e-41
16.99855 -14.737999 -5.2642102 9.1476764e-41
19.097519 -14.387822 -3.817961 9.1476764e-41
18.874939 -14.554149 -5.0207615 9.1476764e-41
17.075085 -14.340935 -4.8621907 9.1476764e-41
17.425945 -14.262327 -4.3353586 9.1476764e-41
17.921612 -14.097123 -3.3037429 9.1476764e-41
18.181992 -14.025767 -2.7371275 9.1476764e-41
17.240772 -14.53098 -5.918725 9.1476764e-41
17.881229 -14.546086 -5.9286404 9.1476764e-41
17.978821 -14.536003 -5.8912554 9.1476764e-41
18.507135 -14.464231 -5.5222864 9.1476764e-41
18.83077 -14.419805 -5.0225 9.1476764e-41
17.076431 -14.280088 -4.8192759 9.1476764e-41
16.892065 -14.337327 -5.2436275 9.1476764e-41
17.474148 -14.199901 -4.207099 9.1476764e-41
17.665207 -14.148405 -3.8293185 9.1476764e-41
17.743429 -14.105632 -3.6441579 9.1476764e-41
18.443106 -13.864141 -2.3073592 9.1476764e-41
16.902451 -14.417619 -5.499249 9.1476764e-41
19.151087 -13.853734 -2.1713469 9.1476764e-41
17.936508 -14.417192 -5.9003863 9.1476764e-41
18.996525 -14.115342 -3.8295317 9.1476764e-41
19.237255 -14.062157 -3.4149497 9.1476764e-41
19.264471 -14.019902 -3.3530447 9.1476764e-41
19.487537 -13.968529 -2.818006 9.1476764e-41
18.893667 -14.183 -4.191566 9.1476764e-41
18.886337 -14.254362 -4.4120731 9.1476764e-41
17.349148 -14.111509 -4.3242483 9.1476764e-41
17.83453 -13.894206 -3.296684 9.1476764e-41
18.423252 -13.819102 -2.3093009 9.1476764e-41
18.037708 -13.681443 -2.7118049 9.1476764e-41
18.763187 -13.947062 -4.4015398 9.1476764e-41
18.61561 -13.869706 -5.0210857 9.1476764e-41
17.86861 -13.396678 -2.7159941 9.1476764e-41
17.136673 -13.658641 -4.299964 9.1476764e-41
16.771536 -13.844938 -5.4148097 9.1476764e-41
16.806473 -13.871513 -5.5208201 9.1476764e-41
17.291159 -13.9624 -5.9396276 9.1476764e-41
19.087011 -13.347032 -2.3798444 9.1476764e-41
18.779058 -13.58723 -3.849668 9.1476764e-41
19.052292 -13.506169 -3.3602605 9.1476764e-41
17.824551 -13.956749 -5.9001842 9.1476764e-41
18.627737 -13.725078 -4.6600261 9.1476764e-41
18.161053 -13.893376 -5.6958766 9.1476764e-41
18.356205 -13.91093 -5.5113873 9.1476764e-41
17.586248 -13.455577 -3.2611773 9.1476764e-41
16.857365 -13.71096 -4.7880583 9.1476764e-41
17.349705 -13.502305 -3.7835009 9.1476764e-41
18.165295 -13.26061 -2.3526969 9.1476764e-41
18.640423 -13.278188 -2.2014112 9.1476764e-41
19.219559 -13.387568 -2.806088 9.1476764e-41
18.634983 -13.653227 -4.387814 9.1476764e-41
17.431576 -13.214986 -3.2293346 9.1476764e-41
17.679119 -13.103105 -2.7175541 9.1476764e-41
16.758778 -13.382093 -4.7696924 9.1476764e-41
18.963268 -13.016774 -2.7603459 9.1476764e-41
18.186466 -13.432732 -5.5109205 9.1476764e-41
18.421207 -13.428984 -4.9968214 9.1476764e-41
17.126547 -13.077989 -3.751488 9.1476764e-41
17.046835 -13.012004 -3.8753231 9.1476764e-41
16.734385 -13.112455 -4.646462 9.1476764e-41
16.900585 -13.097325 -4.2973804 9.1476764e-41
16.606274 -13.164909 -5.1296225 9.1476764e-41
16.673727 -13.276344 -5.4842472 9.1476764e-41
16.827511 -13.319929 -5.7180471 9.1476764e-41
17.375143 -13.375194 -5.9475393 9.1476764e-41
18.327488 -13.041062 -4.3318157 9.1476764e-41
18.522675 -13.04601 -3.7923315 9.1476764e-41
18.768509 -12.954954 -3.2830014 9.1476764e-41
17.633429 -13.372487 -5.9075122 9.1476764e-41
18.324158 -13.22288 -4.9810147 9.1476764e-41
18.134155 -13.308513 -5.5184956 9.1476764e-41
17.184277 -12.786086 -3.1925824 9.1476764e-41
17.057842 -12.937068 -3.7382991 9.1476764e-41
17.483028 -12.729332 -2.7156086 9.1476764e-41
16.675228 -13.094688 -4.7777247 9.1476764e-41
17.911102 -12.699004 -2.4409437 9.1476764e-41
18.127857 -12.703108 -2.4024014 9.1476764e-41
18.495075 -12.705602 -2.5052533 9.1476764e-41
18.626801 -12.7399 -2.5953054 9.1476764e-41
18.469578 -12.9386 -3.7740149 9.1476764e-41
18.693035 -12.827657 -3.2384381 9.1476764e-41
18.317947 -13.013062 -4.3057623 9.1476764e-41
16.829819 -12.912431 -4.2974811 9.1476764e-41
17.434677 -12.799565 -5.9239626 9.1476764e-41
17.492712 -12.798735 -5.9017696 9.1476764e-41
17.913961 -12.742048 -5.4959135 9.1476764e-41
16.669296 -12.487947 -4.2903605 9.1476764e-41
16.521139 -12.558957 -4.8359571 9.1476764e-41
16.488194 -12.648598 -5.3063726 9.1476764e-41
16.525473 -12.685612 -5.4760509 9.1476764e-41
16.845661 -12.768779 -5.8758726 9.1476764e-41
18.366611 -12.307359 -3.0888669 9.1476764e-41
18.196844 -12.364573 -3.7457724 9.1476764e-41
18.054951 -12.497688 -4.3254938 9.1476764e-41
17.984472 -12.547066 -4.9276819 9.1476764e-41
18.021093 -12.593358 -4.830688 9.1476764e-41
16.77091 -12.310288 -3.699538 9.1476764e-41
16.964218 -12.246903 -3.1632068 9.1476764e-41
17.306067 -12.157198 -2.7105198 9.1476764e-41
17.916672 -12.14283 -2.5458846 9.1476764e-41
18.312664 -12.20149 -3.0720313 9.1476764e-41
18.30769 -12.239452 -3.2658918 9.1476764e-41
17.449142 -12.609035 -5.9041677 9.1476764e-41
16.724728 -12.19954 -3.699403 9.1476764e-41
16.886364 -11.992478 -3.1523373 9.1476764e-41
16.408733 -12.360741 -5.4982219 9.1476764e-41
17.716501 -12.258101 -5.4890757 9.1476764e-41
17.207388 -11.735036 -2.709161 9.1476764e-41
16.453623 -11.929878 -4.2618556 9.1476764e-41
16.329153 -12.015746 -4.8702421 9.1476764e-41
16.295588 -12.124342 -5.4880366 9.1476764e-41
16.344986 -12.158711 -5.7081828 9.1476764e-41
16.821796 -12.242967 -6.0987582 9.1476764e-41
17.359173 -12.217443 -5.948215 9.1476764e-41
17.670858 -12.126539 -5.4956317 9.1476764e-41
16.562012 -11.735973 -3.7005558 9.1476764e-41
16.799149 -11.679683 -3.1649668 9.1476764e-41
16.423275 -11.845802 -4.2549443 9.1476764e-41
17.153193 -11.579039 -2.7277598 9.1476764e-41
16.401999 -11.881584 -4.3804197 9.1476764e-41
17.919323 -11.585579 -2.6659262 9.1476764e-41
18.158091 -11.681099 -3.1740355 9.1476764e-41
17.864414 -11.880658 -4.3096585 9.1476764e-41
17.994656 -11.815669 -3.9257789 9.1476764e-41
18.050034 -11.816142 -3.7732244 9.1476764e-41
17.757858 -11.983487 -4.8905225 9.1476764e-41
17.428417 -11.525331 -2.5846913 9.1476764e-41
17.847607 -11.801878 -4.3107157 9.1476764e-41
16.18153 -11.626172 -4.8384027 9.1476764e-41
16.219151 -11.838675 -6.0958362 9.1476764e-41
16.726236 -11.896581 -6.3435483 9.1476764e-41
16.037781 -11.624175 -6.0573621 9.1476764e-41
16.145294 -11.668187 -6.287406 9.1476764e-41
16.669266 -11.715907 -6.4958277 9.1476764e-41
16.857309 -11.714524 -6.4415913 9.1476764e-41
17.322409 -11.655381 -6.0627584 9.1476764e-41
17.548595 -11.546315 -5.5326862 9.1476764e-41
16.686728 -11.100169 -3.2001109 9.1476764e-41
16.221264 -11.260511 -4.2595816 9.1476764e-41
16.422888 -11.180121 -3.731705 9.1476764e-41
17.040447 -11.002976 -2.7720501 9.1476764e-41
16.090611 -11.386852 -4.8289647 9.1476764e-41
16.000126 -11.468028 -5.3943028 9.1476764e-41
17.450708 -10.974229 -2.6008646 9.1476764e-41
17.919214 -11.034129 -2.7770948 9.1476764e-41
18.091766 -11.139726 -3.3043852 9.1476764e-41
17.755545 -11.316381 -4.3646045 9.1476764e-41
17.95788 -11.23256 -3.8471327 9.1476764e-41
17.637665 -11.405019 -4.8869739 9.1476764e-41
15.794684 -11.102818 -6.1214209 9.1476764e-41
16.005627 -11.236675 -6.7000585 9.1476764e-41
17.543961 -10.934874 -5.0456944 9.1476764e-41
16.972754 -11.177591 -6.6198177 9.1476764e-41
17.475384 -11.029725 -5.6143503 9.1476764e-41
16.011286 -10.718781 -4.2644696 9.1476764e-41
16.276947 -10.635389 -3.7432811 9.1476764e-41
16.593639 -10.543834 -3.2151775 9.1476764e-41
15.8708 -10.805785 -4.8282161 9.1476764e-41
15.836437 -10.899278 -5.4206114 9.1476764e-41
15.814622 -10.988802 -5.7217436 9.1476764e-41
15.911869 -11.137242 -6.6790266 9.1476764e-41
15.982783 -11.125618 -6.7861109 9.1476764e-41
17.963614 -10.586491 -3.3717122 9.1476764e-41
17.824011 -10.678627 -3.9035192 9.1476764e-41
16.392612 -11.19481 -6.8986783 9.1476764e-41
17.624872 -10.738011 -4.4070659 9.1476764e-41
16.549112 -11.206172 -6.867734 9.1476764e-41
17.54504 -10.8598 -4.9084096 9.1476764e-41
17.303448 -11.085572 -6.1470919 9.1476764e-41
15.960817 -10.60764 -4.2527127 9.1476764e-41
17.054739 -10.435085 -2.7844088 9.1476764e-41
17.405293 -10.41801 -2.713908 9.1476764e-41
17.874714 -10.501454 -3.0020659 9.1476764e-41
17.459141 -10.629753 -5.0296969 9.1476764e-41
16.168545 -10.373521 -3.7320049 9.1476764e-41
15.732411 -10.491343 -4.8043895 9.1476764e-41
16.420925 -10.030561 -3.2013569 9.1476764e-41
15.701966 -10.478459 -5.8369145 9.1476764e-41
15.649791 -10.566246 -6.2176981 9.1476764e-41
17.766632 -10.113832 -3.3327894 9.1476764e-41
16.421209 -10.669011 -7.0833864 9.1476764e-41
17.301895 -10.397011 -5.4513407 9.1476764e-41
16.58544 -10.6584 -7.0154257 9.1476764e-41
17.283581 -10.412684 -5.6101027 9.1476764e-41
16.945156 -10.608879 -6.6852756 9.1476764e-41
17.17098 -10.499413 -6.1785831 9.1476764e-41
15.98513 -10.030766 -3.7018726 9.1476764e-41
16.379475 -9.9584093 -3.205972 9.1476764e-41
15.623821 -10.257859 -5.0398021 9.1476764e-41
15.701346 -10.359993 -5.4929852 9.1476764e-41
17.392338 -9.88585 -2.8773646 9.1476764e-41
15.622483 -10.541798 -6.6380711 9.1476764e-41
17.700506 -9.9866257 -3.3348408 9.1476764e-41
15.903697 -10.613935 -7.0482922 9.1476764e-41
17.312933 -10.134999 -4.460259 9.1476764e-41
17.384974 -10.185011 -4.3657055 9.1476764e-41
17.580149 -10.053902 -3.8565142 9.1476764e-41
17.293671 -10.286256 -4.9882908 9.1476764e-41
17.273123 -10.389689 -5.605444 9.1476764e-41
15.65288 -10.048817 -4.1870298 9.1476764e-41
15.559041 -10.150398 -4.7469168 9.1476764e-41
16.672525 -9.8772383 -2.9453602 9.1476764e-41
16.808201 -9.8186264 -2.8714023 9.1476764e-41
17.33794 -10.108513 -4.3619413 9.1476764e-41
15.588047 -10.280281 -6.1882505 9.1476764e-41
17.062943 -10.231841 -6.1697168 9.1476764e-41
15.521364 -9.8088694 -4.1670599 9.1476764e-41
15.783818 -9.6838121 -3.6836941 9.1476764e-41
15.384734 -9.806776 -4.6917615 9.1476764e-41
15.499912 -10.163191 -6.689445 9.1476764e-41
17.016205 -9.8747482 -4.9261632 9.1476764e-41
15.465191 -9.7654829 -5.3737583 9.1476764e-41
15.508327 -9.8122025 -5.5368581 9.1476764e-41
15.484611 -9.8852768 -6.1086774 9.1476764e-41
15.435996 -9.9835825 -6.6929555 9.1476764e-41
15.472907 -9.998744 -6.8419309 9.1476764e-41
15.890354 -10.088936 -7.1797762 9.1476764e-41
16.909206 -9.8017988 -5.528583 9.1476764e-41
16.284739 -10.086927 -7.1539507 9.1476764e-41
16.912247 -9.918437 -6.1525149 9.1476764e-41
16.781994 -10.051183 -6.7110538 9.1476764e-41
15.385063 -9.482707 -4.1589136 9.1476764e-41
16.887394 -9.2832689 -2.8684726 9.1476764e-41
17.311214 -9.3747816 -3.0915959 9.1476764e-41
17.397562 -9.4234476 -3.3320332 9.1476764e-41
16.992489 -9.5023632 -4.2912989 9.1476764e-41
17.26218 -9.452672 -3.8109303 9.1476764e-41
16.861446 -9.6142588 -4.8524356 9.1476764e-41
16.884665 -9.7418442 -5.3390331 9.1476764e-41
15.639544 -9.3531876 -3.6923518 9.1476764e-41
15.268333 -9.5142832 -4.6788325 9.1476764e-41
16.046387 -9.3153429 -3.2392344 9.1476764e-41
15.320833 -9.5558214 -5.0745602 9.1476764e-41
16.531855 -9.2624826 -2.9233334 9.1476764e-41
16.82107 -9.6567736 -5.4942884 9.1476764e-41
15.388719 -9.5236559 -5.5297894 9.1476764e-41
17.266712 -9.1616344 -3.2757366 9.1476764e-41
16.941589 -9.3718491 -4.2721553 9.1476764e-41
17.177608 -9.2078629 -3.7533801 9.1476764e-41
15.272273 -9.2497845 -5.5388937 9.1476764e-41
15.291377 -9.2893629 -5.6951756 9.1476764e-41
15.237941 -9.3290482 -6.1244116 9.1476764e-41
15.161408 -9.3601236 -6.6151881 9.1476764e-41
15.41197 -9.4658003 -7.0911069 9.1476764e-41
16.608658 -9.1722307 -5.463542 9.1476764e-41
15.987031 -9.5143843 -7.2143054 9.1476764e-41
16.170736 -9.5105944 -7.1511288 9.1476764e-41
16.637842 -9.29214 -6.1019254 9.1476764e-41
16.572102 -9.443779 -6.7102032 9.1476764e-41
15.275536 -8.9518356 -4.2009497 9.1476764e-41
15.554967 -8.8080826 -3.7404368 9.1476764e-41
15.132881 -8.993577 -4.7535648 9.1476764e-41
15.975389 -8.7477427 -3.2826092 9.1476764e-41
16.081015 -8.7348585 -3.2000804 9.1476764e-41
15.167324 -9.0586071 -5.2543774 9.1476764e-41
16.635372 -8.7041759 -2.9776433 9.1476764e-41
16.843479 -8.7175303 -3.0048213 9.1476764e-41
17.087717 -8.7666092 -3.2154758 9.1476764e-41
16.686733 -9.0208693 -4.6496105 9.1476764e-41
16.798254 -8.9388714 -4.2994184 9.1476764e-41
17.053076 -8.8159714 -3.7520678 9.1476764e-41
16.651455 -9.0660048 -4.8673954 9.1476764e-41
15.129762 -9.1256695 -6.1442165 9.1476764e-41
15.063193 -9.1463728 -6.6074557 9.1476764e-41
16.059357 -9.1799669 -7.1791906 9.1476764e-41
16.004181 -8.4317369 -3.2941303 9.1476764e-41
16.086512 -8.9258013 -7.1459699 9.1476764e-41
14.955339 -8.4559793 -4.7849073 9.1476764e-41
15.195754 -8.3739824 -4.2467299 9.1476764e-41
14.939208 -8.6091661 -5.4192662 9.1476764e-41
14.921769 -8.7156229 -6.0590334 9.1476764e-41
14.897139 -8.7502117 -6.5528722 9.1476764e-41
15.020341 -8.8176098 -6.880847 9.1476764e-41
16.697367 -8.4057016 -4.3785753 9.1476764e-41
15.405946 -8.9216623 -7.1972532 9.1476764e-41
16.548527 -8.5145731 -4.9106121 9.1476764e-41
16.482325 -8.6415939 -5.5394711 9.1476764e-41
15.995536 -8.9258804 -7.1918721 9.1476764e-41
16.494751 -8.7329178 -6.1438823 9.1476764e-41
16.420376 -8.8550768 -6.7448339 9.1476764e-41
16.479202 -8.7959576 -6.5087771 9.1476764e-41
15.522793 -8.2545214 -3.799216 9.1476764e-41
16.007425 -8.1684732 -3.3128734 9.1476764e-41
16.608942 -8.1520519 -3.1104381 9.1476764e-41
16.817404 -8.1804304 -3.1819804 9.1476764e-41
16.940527 -8.2162247 -3.3140223 9.1476764e-41
16.929905 -8.294075 -3.8451054 9.1476764e-41
16.513332 -8.3829603 -4.9525342 9.1476764e-41
14.770338 -8.4485703 -5.9886427 9.1476764e-41
14.825231 -8.1746531 -4.7527499 9.1476764e-41
15.497746 -8.3318892 -7.2056012 9.1476764e-41
16.335327 -8.0663767 -5.5308208 9.1476764e-41
15.861506 -8.3518381 -7.1907353 9.1476764e-41
16.227459 -8.3194504 -6.9379315 9.1476764e-41
16.338709 -8.2799759 -6.7239628 9.1476764e-41
14.516494 -7.9510751 -5.3433475 9.1476764e-41
15.027349 -7.8322821 -4.2647786 9.1476764e-41
14.557021 -8.0040817 -5.2938871 9.1476764e-41
14.530613 -8.0502481 -5.9137454 9.1476764e-41
14.635453 -8.1528454 -6.4088335 9.1476764e-41
14.751112 -8.2070265 -6.6456876 9.1476764e-41
16.746845 -7.6682014 -3.3434443 9.1476764e-41
14.983607 -8.2722826 -6.934001 9.1476764e-41
16.814449 -7.6918373 -3.4494479 9.1476764e-41
16.797531 -7.7171698 -3.8839855 9.1476764e-41
16.385086 -7.9407873 -4.9597921 9.1476764e-41
16.324543 -8.0465469 -5.740922 9.1476764e-41
16.386316 -8.1688519 -6.200191 9.1476764e-41
16.301426 -8.2238293 -6.7922029 9.1476764e-41
14.590459 -7.7447457 -4.7089243 9.1476764e-41
14.504811 -7.9164953 -5.2774639 9.1476764e-41
15.033184 -7.7591286 -4.2305365 9.1476764e-41
15.429152 -7.6902442 -3.8347149 9.1476764e-41
15.900634 -7.6109962 -3.3919277 9.1476764e-41
16.224573 -7.5804205 -3.2349751 9.1476764e-41
16.452225 -7.5992255 -3.2127979 9.1476764e-41
16.578176 -7.7808752 -4.3892841 9.1476764e-41
16.717138 -7.4955454 -3.4303906 9.1476764e-41
14.987858 -8.0696239 -6.9389834 9.1476764e-41
15.571565 -8.0102434 -7.1745129 9.1476764e-41
16.483017 -7.4614053 -4.3851132 9.1476764e-41
16.67902 -7.3417611 -3.8521349 9.1476764e-41
14.270946 -7.5672584 -5.9058957 9.1476764e-41
15.602451 -7.7437172 -7.1334209 9.1476764e-41
16.236237 -7.5905066 -6.2298741 9.1476764e-41
16.196417 -7.7514901 -6.8137083 9.1476764e-41
14.32332 -7.2264929 -4.6697187 9.1476764e-41
14.230535 -7.3798318 -5.2758708 9.1476764e-41
14.725079 -7.1753702 -4.2255511 9.1476764e-41
15.17636 -7.1786537 -3.8965046 9.1476764e-41
14.233003 -7.4891305 -5.91114 9.1476764e-41
15.310051 -7.1619058 -3.7827404 9.1476764e-41
14.237806 -7.4985452 -6.0038671 9.1476764e-41
15.715166 -7.0369577 -3.4427104 9.1476764e-41
14.564902 -7.6219001 -6.6319346 9.1476764e-41
16.270864 -7.0253153 -3.3162518 9.1476764e-41
15.058585 -7.6559362 -6.9601307 9.1476764e-41
16.288 -7.2574778 -4.5893931 9.1476764e-41
16.380569 -7.2145119 -4.4114275 9.1476764e-41
16.590433 -7.1207647 -3.8757784 9.1476764e-41
16.132626 -7.3219733 -4.9247127 9.1476764e-41
16.060062 -7.4190378 -5.5010762 9.1476764e-41
16.195515 -7.5336008 -6.0793018 9.1476764e-41
14.43647 -7.1770759 -4.4828229 9.1476764e-41
14.216161 -7.2504005 -5.0043492 9.1476764e-41
15.240557 -6.9883857 -3.7604268 9.1476764e-41
15.939158 -7.1626749 -5.4667506 9.1476764e-41
16.138327 -7.302125 -6.217361 9.1476764e-41
14.573479 -6.8991919 -4.2133899 9.1476764e-41
14.197208 -7.2864814 -6.3764639 9.1476764e-41
15.591576 -6.6197639 -3.396014 9.1476764e-41
15.640281 -7.2161169 -7.0083957 9.1476764e-41
16.013132 -7.209034 -6.8009472 9.1476764e-41
14.023775 -6.8558083 -5.3098888 9.1476764e-41
13.943366 -6.9110327 -5.8905506 9.1476764e-41
14.454917 -7.0484324 -6.6928339 9.1476764e-41
16.380131 -6.6279182 -3.9798541 9.1476764e-41
15.183338 -7.0679693 -6.9152074 9.1476764e-41
16.012161 -6.9948096 -6.2197008 9.1476764e-41
16.046585 -7.0386572 -6.3579297 9.1476764e-41
13.982747 -6.7393928 -5.270875 9.1476764e-41
14.826988 -6.4913888 -3.7990067 9.1476764e-41
13.924912 -6.8857918 -6.2863965 9.1476764e-41
15.426803 -6.4457922 -3.3967602 9.1476764e-41
14.154002 -6.9690132 -6.547163 9.1476764e-41
16.222727 -6.4793921 -3.4693294 9.1476764e-41
14.603468 -7.0293984 -6.7459478 9.1476764e-41
15.864906 -6.7126107 -4.8918514 9.1476764e-41
16.166637 -6.6796732 -4.4345202 9.1476764e-41
15.765938 -6.7879705 -5.4458723 9.1476764e-41
15.83755 -6.8550515 -5.7199636 9.1476764e-41
14.069048 -6.5671668 -4.6604228 9.1476764e-41
14.39756 -6.5276804 -4.2064905 9.1476764e-41
15.730135 -6.4036994 -3.3216097 9.1476764e-41
15.778248 -6.8238745 -6.7390642 9.1476764e-41
13.748277 -6.5739784 -5.8514867 9.1476764e-41
13.834636 -6.6520667 -6.4035387 9.1476764e-41
13.690089 -6.5135231 -6.2811093 9.1476764e-41
15.114855 -6.0572639 -3.3780842 9.1476764e-41
15.687847 -6.2523966 -4.8807874 9.1476764e-41
15.695103 -6.450007 -6.1724958 9.1476764e-41
15.558085 -6.5806894 -6.6659575 9.1476764e-41
13.705779 -6.2018194 -5.2115984 9.1476764e-41
13.571265 -6.3096747 -5.8052182 9.1476764e-41
14.095509 -6.4423194 -6.6202669 9.1476764e-41
15.531159 -6.2499914 -5.4618449 9.1476764e-41
15.351414 -6.4204416 -6.6249356 9.1476764e-41
15.350236 -6.4817362 -6.6674356 9.1476764e-41
15.65092 -6.3804665 -6.0512133 9.1476764e-41
13.881118 -6.0749002 -4.6514654 9.1476764e-41
14.267821 -5.9991403 -4.1986256 9.1476764e-41
14.628456 -5.9171667 -3.7384133 9.1476764e-41
14.98561 -5.8104773 -3.372673 9.1476764e-41
13.557429 -6.3082037 -6.262557 9.1476764e-41
13.661155 -6.3267679 -6.4138713 9.1476764e-41
15.234535 -5.7928228 -3.272562 9.1476764e-41
15.770186 -5.8473577 -3.3366292 9.1476764e-41
15.543489 -6.170939 -5.1240239 9.1476764e-41
15.636171 -6.1011147 -4.8777399 9.1476764e-41
16.135431 -5.9470377 -3.9037776 9.1476764e-41
16.142126 -5.9600286 -3.7990093 9.1476764e-41
14.831904 -6.3746376 -6.6556706 9.1476764e-41
15.972347 -6.0383582 -4.3882513 9.1476764e-41
15.563148 -6.2539191 -6.1352658 9.1476764e-41
13.544026 -5.9860573 -5.158566 9.1476764e-41
13.835402 -5.9845071 -4.6494632 9.1476764e-41
15.434178 -6.0081091 -5.4424639 9.1476764e-41
13.28798 -5.9365911 -5.7104445 9.1476764e-41
13.389588 -6.0111976 -6.2661223 9.1476764e-41
14.886552 -5.9832067 -6.534142 9.1476764e-41
15.32465 -5.8619299 -6.0749812 9.1476764e-41
13.184813 -5.5937233 -5.0507073 9.1476764e-41
13.080753 -5.6871133 -5.6618872 9.1476764e-41
14.221404 -5.4964242 -4.1811085 9.1476764e-41
14.548818 -5.3777442 -3.7191696 9.1476764e-41
13.506422 -5.8098669 -6.4546599 9.1476764e-41
13.593098 -5.845417 -6.4943175 9.1476764e-41
14.285331 -5.8039832 -6.5790362 9.1476764e-41
15.89891 -5.4066687 -3.9044437 9.1476764e-41
14.763914 -5.8175149 -6.5230565 9.1476764e-41
15.762981 -5.4848337 -4.4310117 9.1476764e-41
14.886329 -5.8498297 -6.4966841 9.1476764e-41
