ply
format ascii 1.0
comment PCL generated
element vertex 1196
property float x
property float y
property float z
property uchar red
property uchar green
property uchar blue
element camera 0
property float view_px
property float view_py
property float view_pz
property float x_axisx
property float x_axisy
property float x_axisz
property float y_axisx
property float y_axisy
property float y_axisz
property float z_axisx
property float z_axisy
property float z_axisz
property float focal
property float scalex
property float scaley
property float centerx
property float centery
property int viewportx
property int viewporty
property float k1
property float k2
end_header
16.441774 -6.774159 -0.16181162 0 255 0
17.042025 -6.7218609 0.23801437 0 255 0
16.4368 -6.8968353 -1.1420637 0 255 0
16.527685 -7.007504 -1.4878836 0 255 0
17.515423 -6.6248517 0.6389817 0 255 0
16.369183 -7.1343613 -2.0411367 0 255 0
16.247046 -7.1943402 -2.9763846 0 255 0
18.744171 -6.578474 0.89714432 0 255 0
18.376562 -6.7935104 -0.48023069 0 255 0
18.158266 -6.8952117 -0.99552995 0 255 0
18.78796 -6.740675 -0.057522207 0 255 0
19.00757 -6.6816192 0.43093795 0 255 0
18.173534 -7.0194974 -1.3767203 0 255 0
18.180222 -7.2397232 -2.8716028 0 255 0
16.227209 -6.7017684 -0.54089189 0 255 0
16.448143 -6.6286101 -0.072288312 0 255 0
16.265514 -6.7693005 -0.69469208 0 255 0
17.898596 -6.5078855 0.99919975 0 255 0
16.169106 -7.0718794 -2.4707379 0 255 0
18.223778 -6.5006666 1.0584078 0 255 0
18.140121 -7.3154449 -4.1605134 0 255 0
16.366674 -6.6264234 -0.14904459 0 255 0
16.506735 -7.0841842 -3.4766135 0 255 0
16.138565 -6.554318 -0.66612077 0 255 0
17.340622 -6.3860807 0.66433728 0 255 0
16.851736 -7.0717268 -4.2071772 0 255 0
18.067318 -6.7691498 -1.6596678 0 255 0
16.315374 -6.6344876 -1.425966 0 255 0
17.640602 -6.2472548 1.0090036 0 255 0
18.217438 -6.4560971 -0.44539484 0 255 0
17.929094 -6.9417372 -3.4523468 0 255 0
17.674505 -7.0432205 -4.5108027 0 255 0
16.301062 -6.7706375 -3.3807027 0 255 0
16.46769 -6.8311353 -3.7033782 0 255 0
16.753006 -6.9389858 -4.212687 0 255 0
16.819103 -6.9488201 -4.3080797 0 255 0
17.927696 -6.5817623 -2.2486908 0 255 0
17.837063 -6.689105 -2.8260581 0 255 0
17.230629 -6.9806714 -4.5834131 0 255 0
17.794455 -6.7612958 -3.4181054 0 255 0
17.831001 -6.803987 -3.7758446 0 255 0
17.86673 -6.892848 -4.0986724 0 255 0
16.783089 -6.134407 0.3055788 0 255 0
17.149315 -6.008934 0.71382231 0 255 0
16.145515 -6.3565598 -1.3831903 0 255 0
16.19305 -6.4356489 -1.7017614 0 255 0
16.157305 -6.5126615 -2.0329809 0 255 0
16.056978 -6.5556121 -2.5609159 0 255 0
16.173531 -6.6757641 -3.1425498 0 255 0
18.603014 -6.1250257 0.52775234 0 255 0
18.536428 -6.045805 0.56840628 0 255 0
17.885061 -6.3117003 -1.0374777 0 255 0
17.901451 -6.3222179 -0.9654659 0 255 0
18.412701 -6.1283398 0.033275634 0 255 0
17.90152 -6.4159927 -1.5888107 0 255 0
17.899551 -6.5190506 -2.2294862 0 255 0
17.925554 -6.5451946 -2.157084 0 255 0
16.085054 -6.0550566 -0.10670982 0 255 0
15.922656 -6.1482191 -0.62565744 0 255 0
16.498085 -6.0838528 0.16262609 0 255 0
16.000622 -6.251503 -0.92418802 0 255 0
17.412588 -5.8683362 1.0179639 0 255 0
17.722155 -5.8858824 1.1195269 0 255 0
18.238085 -5.9461532 0.96684498 0 255 0
18.063217 -6.1677456 -0.42010418 0 255 0
16.071001 -6.3035369 -2.0095067 0 255 0
17.660461 -6.35251 -2.7834744 0 255 0
17.69298 -6.6414199 -4.05058 0 255 0
16.571157 -5.802577 0.30467394 0 255 0
16.318722 -6.4566021 -4.0920358 0 255 0
18.190964 -5.6519394 0.74443132 0 255 0
16.267401 -6.3668137 -4.2300239 0 255 0
16.671041 -6.4481091 -4.7507439 0 255 0
17.374035 -6.4394741 -4.5657945 0 255 0
15.886584 -5.6692457 -0.073053487 0 255 0
15.885175 -6.0083432 -2.582186 0 255 0
16.065208 -6.166574 -3.3752904 0 255 0
16.206142 -6.3166761 -4.0385432 0 255 0
17.671997 -5.9989576 -2.2303457 0 255 0
17.410229 -6.1747055 -3.3474174 0 255 0
17.462505 -6.2938766 -3.9897351 0 255 0
15.612402 -5.5998716 -0.59463936 0 255 0
15.781555 -5.7923322 -1.39307 0 255 0
15.760183 -5.7729263 -1.2946886 0 255 0
16.680111 -5.4800472 0.5488764 0 255 0
16.922295 -5.4304471 0.7952764 0 255 0
15.82052 -5.8549972 -1.9370748 0 255 0
15.874835 -5.9806547 -2.5960937 0 255 0
17.708275 -5.3548932 1.0198953 0 255 0
16.018703 -6.0537457 -3.3851645 0 255 0
18.000786 -5.4927654 0.13677908 0 255 0
18.066366 -5.4428129 0.43082169 0 255 0
17.641958 -5.7072186 -0.94512784 0 255 0
17.664581 -5.818727 -1.5912979 0 255 0
17.51252 -6.0114455 -2.7446935 0 255 0
16.63063 -6.3567562 -4.8398318 0 255 0
15.760962 -5.4414444 -0.05961125 0 255 0
15.610629 -5.5930204 -0.5766958 0 255 0
16.040682 -5.4316955 0.1649096 0 255 0
16.332415 -5.4445691 0.32233983 0 255 0
16.842714 -5.2867537 0.79509979 0 255 0
17.223503 -5.3019257 1.022056 0 255 0
17.957613 -5.3728576 0.80111969 0 255 0
17.742264 -5.5397854 -0.36212265 0 255 0
17.943569 -5.3968 0.14855507 0 255 0
15.648343 -5.610301 -1.8802365 0 255 0
16.106075 -6.1112638 -4.6612 0 255 0
17.147951 -5.0690579 1.0161004 0 255 0
17.323723 -5.0468397 1.0287553 0 255 0
17.239737 -5.8998427 -3.9228492 0 255 0
16.126787 -5.0737152 0.35743317 0 255 0
17.650009 -4.9823437 0.82599992 0 255 0
15.850293 -5.7723951 -3.9363241 0 255 0
15.834518 -5.8247938 -4.5766587 0 255 0
16.003307 -5.8983841 -4.9313331 0 255 0
17.462307 -5.4740677 -2.2523406 0 255 0
17.000683 -5.9178724 -5.0691247 0 255 0
17.226931 -5.8441544 -4.6034174 0 255 0
15.358777 -5.2525177 -1.1768403 0 255 0
15.704157 -5.4985547 -3.0250602 0 255 0
15.798963 -5.6085281 -3.3404868 0 255 0
15.792432 -5.7168808 -4.0799112 0 255 0
15.803976 -5.6956787 -3.9311483 0 255 0
17.349499 -5.1634793 -1.008459 0 255 0
17.409496 -5.2421551 -0.922454 0 255 0
17.426296 -5.2887616 -1.5905207 0 255 0
17.467552 -5.3734341 -1.9254142 0 255 0
17.096523 -5.5692396 -3.2833381 0 255 0
17.277306 -5.5012708 -2.7572134 0 255 0
16.452496 -5.9138227 -5.2506371 0 255 0
17.125252 -5.6766524 -3.9065268 0 255 0
17.166832 -5.7151365 -4.1011667 0 255 0
15.259091 -5.1221695 -1.1522824 0 255 0
16.159569 -4.8500166 0.46777102 0 255 0
15.283609 -5.149034 -1.4215927 0 255 0
16.534639 -4.7862058 0.77926576 0 255 0
15.339786 -5.2083783 -1.7822728 0 255 0
15.47056 -5.3329482 -2.2689939 0 255 0
17.17705 -4.753993 0.99856883 0 255 0
15.535345 -5.3725204 -2.5159903 0 255 0
17.463593 -4.7867446 0.87304425 0 255 0
17.614086 -4.8029003 0.64638907 0 255 0
17.466858 -5.048419 -0.35573566 0 255 0
17.659689 -4.9260511 0.1817071 0 255 0
17.341543 -5.1322174 -0.91194105 0 255 0
15.22038 -4.9637737 -0.50074208 0 255 0
15.484705 -4.8649092 -0.023065666 0 255 0
16.982073 -4.7277236 0.99827743 0 255 0
15.637375 -5.5295959 -4.4945502 0 255 0
17.340292 -5.2242737 -2.2147238 0 255 0
15.142596 -4.8379102 -0.48546493 0 255 0
15.383255 -5.1317167 -2.4970381 0 255 0
15.57995 -5.2242508 -3.2712667 0 255 0
17.164816 -4.9317074 -1.501168 0 255 0
16.916861 -5.210948 -3.2638731 0 255 0
17.133049 -5.2110195 -2.7391996 0 255 0
15.40112 -4.6675854 -0.010341354 0 255 0
17.465721 -4.5900574 0.25934613 0 255 0
16.394274 -4.4477201 0.78856754 0 255 0
17.132299 -4.4093976 0.91086704 0 255 0
17.172737 -4.5428295 -0.28094086 0 255 0
15.532507 -5.2458038 -4.8161249 0 255 0
15.891177 -5.380043 -5.3064461 0 255 0
16.41235 -5.4162917 -5.4997287 0 255 0
17.013451 -5.218626 -4.4929285 0 255 0
17.040489 -5.2499557 -4.6028504 0 255 0
16.984381 -5.3929152 -5.1749635 0 255 0
15.185336 -4.8045516 -2.4824719 0 255 0
15.288095 -4.8460431 -2.7676787 0 255 0
15.418979 -4.9319425 -3.1947157 0 255 0
15.482205 -5.029541 -3.5216384 0 255 0
16.952215 -4.574635 -0.7958346 0 255 0
15.483685 -5.0970993 -3.8830657 0 255 0
15.453952 -5.1566391 -4.4330115 0 255 0
16.999502 -4.7386594 -1.8335019 0 255 0
17.030977 -4.7922573 -2.1184707 0 255 0
16.940004 -4.8567429 -2.6806204 0 255 0
16.804405 -4.9583936 -3.2344823 0 255 0
16.792284 -5.0414977 -3.6954916 0 255 0
16.825798 -5.0798292 -3.8567419 0 255 0
15.240189 -4.2942138 0.0084735099 0 255 0
14.821689 -4.5380521 -1.0380077 0 255 0
15.347574 -4.3416257 0.067823328 0 255 0
14.831726 -4.5532117 -1.0605454 0 255 0
15.832693 -4.2777572 0.41857976 0 255 0
14.899496 -4.6185164 -1.6927906 0 255 0
16.324108 -4.1943755 0.79706287 0 255 0
15.010605 -4.7044125 -2.0355284 0 255 0
17.101828 -4.2116318 0.81619847 0 255 0
17.264574 -4.2711792 0.31160137 0 255 0
17.088711 -4.3887267 -0.25331673 0 255 0
16.880697 -4.4669933 -0.77409428 0 255 0
16.828487 -4.5225616 -1.1170652 0 255 0
16.848806 -4.5759702 -1.3748912 0 255 0
16.891058 -4.6225872 -2.0819082 0 255 0
16.756792 -4.9371338 -3.8308814 0 255 0
16.959 -5.0612655 -4.5935755 0 255 0
14.825656 -4.3002424 -0.4256123 0 255 0
15.37709 -4.8201017 -3.8592169 0 255 0
16.743319 -4.4475751 -1.336897 0 255 0
14.722397 -4.0948744 -0.41321605 0 255 0
14.630075 -4.2774825 -1.6282688 0 255 0
16.690737 -4.4153576 -2.6475363 0 255 0
16.493914 -4.8456421 -5.5009074 0 255 0
16.789629 -4.8237882 -5.205327 0 255 0
14.881113 -4.3440824 -2.3984492 0 255 0
15.289129 -4.5083585 -3.8980222 0 255 0
15.279963 -4.540277 -4.1284003 0 255 0
15.274811 -4.5911345 -4.4606524 0 255 0
15.443347 -4.7287931 -5.0701118 0 255 0
15.89601 -4.8144178 -5.4889045 0 255 0
16.734447 -4.6067777 -4.5284305 0 255 0
16.822048 -4.7304363 -4.8472352 0 255 0
15.609195 -3.7447267 0.44873837 0 255 0
14.738309 -4.161932 -2.3402941 0 255 0
14.853732 -4.2013531 -2.5279789 0 255 0
15.179193 -4.3438339 -3.1586103 0 255 0
16.939108 -3.7336075 0.33843246 0 255 0
16.558386 -3.9023285 -0.72931695 0 255 0
16.447817 -4.0009747 -1.2963445 0 255 0
16.498245 -4.097322 -1.8616247 0 255 0
16.536148 -4.1465359 -1.9694005 0 255 0
16.61643 -4.3089275 -2.8345418 0 255 0
16.5896 -4.3870864 -3.2379172 0 255 0
16.577309 -4.4796872 -3.8310614 0 255 0
16.649532 -4.5303783 -4.2465172 0 255 0
14.387726 -3.879602 -0.92085612 0 255 0
15.034558 -3.7060409 0.0028468501 0 255 0
14.389557 -3.9765306 -1.5352452 0 255 0
15.633847 -3.6830978 0.49340847 0 255 0
14.523996 -4.0694976 -1.9427128 0 255 0
16.063911 -3.5982239 0.79069728 0 255 0
16.89286 -3.7135863 0.14253175 0 255 0
16.778946 -3.7658584 -0.19229032 0 255 0
16.453018 -4.0162125 -1.9385167 0 255 0
16.655386 -4.545454 -5.1923418 0 255 0
14.580228 -3.7082717 -0.42636073 0 255 0
14.930728 -3.6887345 -0.080774352 0 255 0
16.446182 -3.6629715 -0.7131651 0 255 0
16.578106 -4.268167 -4.4859095 0 255 0
14.168637 -3.6552672 -1.4871452 0 255 0
15.926249 -3.2897904 0.82143658 0 255 0
14.418884 -3.7671249 -2.2360492 0 255 0
15.932332 -4.2480526 -5.5175242 0 255 0
16.510332 -4.2352962 -5.1700134 0 255 0
15.073465 -3.822525 -3.3202353 0 255 0
15.18078 -3.9467208 -3.976367 0 255 0
15.142981 -4.0321469 -4.4911242 0 255 0
15.14332 -4.0440016 -4.55409 0 255 0
16.332298 -3.7074387 -2.612232 0 255 0
15.416006 -4.184268 -5.264544 0 255 0
16.388226 -3.8542175 -3.2217863 0 255 0
16.399948 -3.9709976 -3.9049642 0 255 0
16.467007 -3.9907165 -4.491549 0 255 0
16.497244 -4.0291119 -4.666183 0 255 0
14.249777 -3.5358443 -2.2002964 0 255 0
14.763901 -3.6762359 -2.8726711 0 255 0
16.635988 -3.1398118 0.34288883 0 255 0
16.273186 -3.3033645 -0.6917395 0 255 0
16.136995 -3.4397736 -1.3904458 0 255 0
16.159029 -3.4439652 -1.2617178 0 255 0
16.185686 -3.5461807 -1.9034597 0 255 0
15.106695 -3.9161103 -4.5712142 0 255 0
16.275026 -3.6393418 -2.3251569 0 255 0
16.308884 -3.7165756 -3.299597 0 255 0
14.109381 -3.2517548 -0.89277232 0 255 0
14.0069 -3.3852921 -1.4628719 0 255 0
14.510056 -3.2092559 -0.45848316 0 255 0
14.690435 -3.2117476 -0.29939616 0 255 0
14.059519 -3.4379807 -1.7549723 0 255 0
14.962161 -3.1592057 -0.027685218 0 255 0
15.309662 -3.0839767 0.44771492 0 255 0
15.737579 -2.9958282 0.8372851 0 255 0
16.494204 -3.1564834 -0.14638004 0 255 0
15.039495 -3.67379 -3.3691335 0 255 0
16.207382 -3.4900665 -2.5618567 0 255 0
15.989474 -3.2145247 -1.8341939 0 255 0
15.418811 -3.8011398 -5.3841972 0 255 0
16.154491 -3.5185134 -3.8591306 0 255 0
13.973035 -2.9342041 -0.88790053 0 255 0
16.44335 -2.7445571 0.39814705 0 255 0
16.042086 -3.2816939 -3.1201842 0 255 0
15.324133 -3.6166291 -5.369278 0 255 0
15.423093 -3.6303604 -5.4248056 0 255 0
15.711742 -3.6627946 -5.4964256 0 255 0
15.971651 -3.6907547 -5.4551082 0 255 0
16.288696 -3.5671875 -4.9877687 0 255 0
16.256866 -3.6244812 -5.153779 0 255 0
15.136212 -2.6616149 0.45617634 0 255 0
13.897238 -3.0300751 -2.137331 0 255 0
15.462143 -2.6178238 0.82742298 0 255 0
14.653506 -3.20363 -3.1614826 0 255 0
16.31362 -2.7782364 -0.10929849 0 255 0
14.969028 -3.3106506 -3.6946194 0 255 0
15.860089 -2.9940782 -2.0169477 0 255 0
15.005877 -3.3599746 -3.9716611 0 255 0
14.946207 -3.4478791 -4.5347137 0 255 0
15.980176 -3.1234467 -2.5538747 0 255 0
15.007883 -3.5335662 -4.9863372 0 255 0
16.114777 -3.3641267 -4.2186866 0 255 0
16.224463 -3.4441285 -4.5042243 0 255 0
13.644092 -2.7989516 -1.3959529 0 255 0
14.443918 -2.6688323 -0.49118844 0 255 0
13.834964 -2.9497528 -2.1220164 0 255 0
14.669943 -2.6626205 -0.30227551 0 255 0
14.865183 -2.6359406 -0.03414578 0 255 0
14.971878 -2.5671768 0.2247829 0 255 0
13.871027 -2.9679933 -2.1999545 0 255 0
14.231089 -3.0721023 -2.7825215 0 255 0
14.523419 -3.1398072 -3.0670772 0 255 0
16.332037 -2.525769 0.40574095 0 255 0
15.869303 -2.7336533 -0.83505762 0 255 0
15.993811 -2.7671723 -0.63486266 0 255 0
15.799627 -2.8231568 -1.1944364 0 255 0
15.811984 -2.9383972 -1.8223623 0 255 0
15.94704 -3.1411605 -3.1081748 0 255 0
15.924194 -3.1747253 -3.426908 0 255 0
15.95119 -3.2369187 -3.715054 0 255 0
16.186016 -3.4468751 -5.1506591 0 255 0
14.023746 -2.6548982 -0.745525 0 255 0
15.051715 -2.4906921 0.45537448 0 255 0
14.815997 -2.5104051 -0.046905939 0 255 0
15.369186 -2.3812745 0.85802448 0 255 0
15.51459 -2.3736145 0.92005563 0 255 0
14.200491 -2.9434631 -2.9050496 0 255 0
16.196932 -2.5633759 -0.10742471 0 255 0
14.882815 -3.1155334 -3.948869 0 255 0
15.828137 -3.0517106 -3.6762259 0 255 0
13.784808 -2.576915 -0.88782382 0 255 0
15.996213 -3.0373962 -4.4662032 0 255 0
13.390185 -2.5059447 -1.9826617 0 255 0
15.49194 -2.4702773 -1.7217762 0 255 0
14.667071 -2.7767015 -3.9179127 0 255 0
14.670123 -2.8989944 -4.5002794 0 255 0
15.651614 -2.6280091 -2.4792714 0 255 0
14.926068 -3.0100129 -5.2762046 0 255 0
15.043109 -3.0251968 -5.3604922 0 255 0
15.891828 -2.8590484 -4.4518504 0 255 0
15.450045 -3.0731978 -5.4799495 0 255 0
15.945761 -2.8856018 -4.5895205 0 255 0
15.556212 -3.0929856 -5.4770541 0 255 0
16.010067 -3.0469315 -5.1301856 0 255 0
13.196421 -2.2747116 -1.2535357 0 255 0
13.671331 -2.5435302 -2.7485309 0 255 0
14.502142 -2.6804566 -3.5996401 0 255 0
15.553287 -2.4908829 -2.4372153 0 255 0
14.635037 -2.8686097 -4.6233063 0 255 0
14.646387 -2.8568435 -4.4960642 0 255 0
15.594177 -2.5336335 -2.6980855 0 255 0
15.641394 -2.6451049 -3.1138968 0 255 0
15.643949 -2.7105911 -3.7083898 0 255 0
15.677045 -2.7274184 -3.939353 0 255 0
15.457173 -2.9741318 -5.4742403 0 255 0
13.070999 -2.2284317 -1.3785045 0 255 0
13.136246 -2.3256271 -1.8843722 0 255 0
13.294171 -2.4033997 -2.1880496 0 255 0
14.101797 -2.0842133 -0.58438951 0 255 0
14.227549 -2.0690093 -0.49998054 0 255 0
14.688715 -1.8871871 0.5090667 0 255 0
14.545074 -2.003334 -0.03392221 0 255 0
13.585495 -2.4829941 -2.7302883 0 255 0
13.643732 -2.4614425 -2.8645205 0 255 0
14.092303 -2.537529 -3.2546527 0 255 0
15.992788 -1.8905517 0.50696439 0 255 0
15.993243 -1.8923432 0.51493901 0 255 0
15.399118 -2.179271 -1.089528 0 255 0
15.621881 -2.0953979 -0.57824033 0 255 0
15.343561 -2.2449036 -1.6590474 0 255 0
15.403921 -2.3292053 -1.9915745 0 255 0
13.03277 -2.1129289 -1.2026829 0 255 0
12.883017 -2.1605973 -1.7867739 0 255 0
13.489993 -2.0294082 -0.84921986 0 255 0
14.673947 -1.8794433 0.49384078 0 255 0
14.859818 -1.8063247 0.77419233 0 255 0
15.251276 -1.8082702 0.93027222 0 255 0
15.550448 -1.8075591 0.91538531 0 255 0
15.90502 -1.9657425 -0.071894214 0 255 0
14.920865 -2.7448609 -5.3800592 0 255 0
13.160977 -2.2469344 -2.5537219 0 255 0
15.260104 -1.9555756 -1.0505368 0 255 0
15.454432 -2.3196762 -3.0520864 0 255 0
15.296807 -2.7071304 -5.4625382 0 255 0
14.142194 -1.8147446 -0.47260472 0 255 0
14.354212 -1.7025207 0.019331742 0 255 0
15.485992 -1.8425277 -0.5533132 0 255 0
15.812048 -1.7625793 -0.05418561 0 255 0
14.363739 -2.3590972 -3.8750873 0 255 0
15.22753 -2.0481002 -2.3238866 0 255 0
14.451782 -2.4826369 -5.094285 0 255 0
15.72053 -2.5306213 -5.0839548 0 255 0
12.45205 -1.8514175 -1.5826899 0 255 0
12.704928 -1.8152237 -1.098025 0 255 0
12.668393 -1.9851654 -2.3356564 0 255 0
13.955081 -2.1149399 -3.5299716 0 255 0
14.22511 -2.1927276 -3.8467 0 255 0
14.287283 -2.229573 -4.0632491 0 255 0
14.270144 -2.2750626 -4.4453959 0 255 0
14.364792 -2.3699996 -5.0729508 0 255 0
14.433927 -2.3862045 -5.1702471 0 255 0
14.911417 -2.4694443 -5.4376235 0 255 0
15.245565 -2.4946258 -5.4433398 0 255 0
15.649142 -2.4177003 -5.0672951 0 255 0
13.400263 -1.589505 -0.7478466 0 255 0
15.740988 -1.417456 0.41253003 0 255 0
14.996323 -1.7108032 -1.4859047 0 255 0
15.041287 -1.79151 -1.6851796 0 255 0
15.100418 -1.8742034 -2.3185918 0 255 0
15.1276 -1.8948272 -2.5609083 0 255 0
15.20672 -1.9589065 -2.9648657 0 255 0
15.316073 -2.0700378 -3.4562888 0 255 0
15.35647 -2.116925 -3.672338 0 255 0
15.518087 -2.23508 -4.3643174 0 255 0
12.139712 -1.6098648 -1.4876566 0 255 0
12.336472 -1.5081177 -0.95261025 0 255 0
12.230444 -1.695227 -2.1381562 0 255 0
12.209601 -1.6836212 -2.0962243 0 255 0
13.390671 -1.5279222 -0.72938877 0 255 0
12.5595 -1.8359802 -2.5923991 0 255 0
14.145889 -1.3986953 0.059457801 0 255 0
13.991552 -1.5091842 -0.44728887 0 255 0
12.982013 -1.8705673 -3.0732653 0 255 0
14.945013 -1.2145004 0.92160749 0 255 0
13.448175 -1.9457229 -3.3083065 0 255 0
13.482422 -1.9600769 -3.3159664 0 255 0
15.508743 -1.2854477 0.71351421 0 255 0
15.280813 -1.4738113 -0.51245469 0 255 0
15.62471 -1.428476 -0.059994236 0 255 0
14.149042 -2.1114731 -4.4218421 0 255 0
12.187701 -1.6606308 -2.1304803 0 255 0
12.922018 -1.4295732 -0.7153163 0 255 0
14.218188 -1.2310349 0.57908398 0 255 0
14.345154 -1.1813887 0.7576946 0 255 0
15.396106 -1.2213652 0.76744026 0 255 0
14.962863 -1.4880615 -0.96028948 0 255 0
14.88707 -1.5745926 -1.6442105 0 255 0
15.014069 -1.7086868 -2.9050696 0 255 0
15.234741 -1.9139587 -3.6494069 0 255 0
12.138504 -1.3502976 -0.86878723 0 255 0
11.876676 -1.3937668 -1.4065313 0 255 0
12.926611 -1.2669952 -0.61396742 0 255 0
15.458551 -1.0908371 0.57273775 0 255 0
13.840655 -1.8055878 -3.7980449 0 255 0
12.461198 -1.1356612 -0.49234414 0 255 0
13.908994 -1.0822449 0.14154933 0 255 0
13.378009 -1.6530944 -3.5408604 0 255 0
14.809079 -1.2651733 -0.9329263 0 255 0
14.896045 -1.9015396 -5.3721032 0 255 0
14.964361 -1.9727875 -5.3811426 0 255 0
15.25018 -1.8617462 -4.9681244 0 255 0
13.638937 -1.0172012 -0.27163804 0 255 0
12.425845 -1.5108231 -2.9537196 0 255 0
13.349432 -1.5798385 -3.6032367 0 255 0
15.068045 -1.1088852 -0.45696759 0 255 0
13.740051 -1.6633896 -4.0346942 0 255 0
14.703882 -1.3751113 -2.2011318 0 255 0
13.733844 -1.6587982 -4.3099709 0 255 0
13.89787 -1.7384262 -4.9172592 0 255 0
13.964334 -1.7886261 -4.9762511 0 255 0
14.969427 -1.5325744 -3.5987027 0 255 0
14.410416 -1.8489136 -5.3332253 0 255 0
15.056867 -1.6103179 -4.0966768 0 255 0
15.145533 -1.7400986 -4.9409366 0 255 0
11.666876 -1.2238998 -1.9651415 0 255 0
13.076739 -0.909082 -0.34409663 0 255 0
12.139483 -1.3034774 -2.8573525 0 255 0
13.715482 -0.84585261 0.24243057 0 255 0
14.575732 -1.2246323 -2.1513553 0 255 0
13.640841 -1.5836227 -4.3017001 0 255 0
14.700129 -1.3298599 -2.8188832 0 255 0
14.854914 -1.4428177 -3.2182727 0 255 0
15.026502 -1.5631912 -4.242147 0 255 0
15.063248 -1.6091262 -4.2511239 0 255 0
11.388928 -0.95758361 -1.3030587 0 255 0
11.669894 -0.95461881 -0.71356446 0 255 0
11.43367 -0.99008936 -1.2324876 0 255 0
11.602069 -1.1112076 -2.176851 0 255 0
11.959409 -1.2596008 -2.6540978 0 255 0
12.380374 -1.3317291 -3.1096377 0 255 0
14.414663 -0.61845088 0.87568969 0 255 0
12.848669 -1.3806564 -3.4619343 0 255 0
14.955603 -0.64754939 0.68281204 0 255 0
14.591364 -0.94735259 -0.9004063 0 255 0
14.903979 -0.86398309 -0.43122146 0 255 0
14.501801 -1.0712081 -1.4798135 0 255 0
15.225751 -0.82557219 0.035242774 0 255 0
14.607574 -1.2473648 -2.6211078 0 255 0
11.519867 -0.7951858 -0.67774677 0 255 0
11.37149 -0.92421412 -1.2124764 0 255 0
11.84895 -0.79011077 -0.41832674 0 255 0
11.979568 -0.71325988 -0.30208299 0 255 0
11.448196 -1.0113021 -1.8481171 0 255 0
12.720565 -0.67065275 -0.11346764 0 255 0
13.169107 -0.73200375 -0.11745252 0 255 0
11.896777 -1.1187698 -2.7957902 0 255 0
13.875574 -0.62999874 0.67206919 0 255 0
14.515738 -1.1154648 -2.7616496 0 255 0
13.723444 -1.4493759 -4.9328866 0 255 0
14.704473 -1.1984543 -3.5331042 0 255 0
14.480273 -1.5224091 -5.2386103 0 255 0
12.726862 -0.63232416 -0.081889957 0 255 0
13.416913 -0.51495969 0.37166187 0 255 0
13.496625 -1.3600662 -4.749805 0 255 0
14.763605 -1.3497573 -4.8199091 0 255 0
13.091184 -1.19048 -4.2081051 0 255 0
14.223981 -0.80904537 -2.0501416 0 255 0
11.46438 -0.83901364 -2.540307 0 255 0
11.767187 -0.82834929 -3.107332 0 255 0
13.725421 -0.2749618 0.72903943 0 255 0
12.683456 -1.005394 -3.8134837 0 255 0
12.957547 -1.0925567 -4.1837926 0 255 0
13.457993 -1.1473709 -4.8655324 0 255 0
14.342093 -0.83905637 -3.0786564 0 255 0
14.461126 -0.92118984 -3.455663 0 255 0
13.975775 -1.2071762 -5.0627375 0 255 0
14.528256 -0.9966644 -4.1011672 0 255 0
14.530103 -0.99440759 -4.0413222 0 255 0
14.472775 -1.0837737 -4.7304306 0 255 0
11.016891 -0.41713712 -1.1087041 0 255 0
11.118676 -0.52948606 -1.7959183 0 255 0
12.233289 -0.85949552 -3.5142746 0 255 0
14.061926 -0.4857696 -1.3797725 0 255 0
14.761545 -0.28569791 0.18700367 0 255 0
14.072525 -0.61838984 -2.0153041 0 255 0
13.017557 -1.0244354 -4.5092015 0 255 0
13.04202 -1.038298 -4.5299177 0 255 0
14.096079 -0.63507837 -2.4982142 0 255 0
14.144953 -0.67667693 -2.6414959 0 255 0
14.509793 -0.97866666 -4.0960822 0 255 0
11.218668 -0.29177698 -0.6169076 0 255 0
12.089648 -0.1551864 -0.085602753 0 255 0
11.361607 -0.65353388 -2.7655168 0 255 0
12.911631 -0.11886133 0.3804723 0 255 0
13.029312 -0.12130426 0.44908726 0 255 0
13.547903 -0.037205447 0.72196698 0 255 0
13.82388 -0.040940799 0.76935697 0 255 0
12.175518 -0.73572993 -3.6615441 0 255 0
14.363996 -0.08956293 0.65240133 0 255 0
14.641751 -0.15753016 0.23002546 0 255 0
12.590469 -0.84474486 -4.0421581 0 255 0
13.972074 -0.36176601 -1.3569515 0 255 0
14.214529 -0.35960537 -0.81798786 0 255 0
14.065216 -0.42702174 -1.2174007 0 255 0
14.465365 -0.28926235 -0.41279334 0 255 0
14.528982 -0.26414332 -0.29728207 0 255 0
14.255804 -0.89231104 -4.6450524 0 255 0
10.940091 -0.26696011 -1.0997567 0 255 0
11.193277 -0.22207636 -0.61128819 0 255 0
11.220053 -0.21796869 -0.58498049 0 255 0
10.94018 -0.29911038 -1.2797714 0 255 0
11.709793 -0.15625452 -0.26747641 0 255 0
11.070185 -0.41144404 -1.8761293 0 255 0
11.17544 -0.4903793 -2.4011827 0 255 0
12.363037 -0.12377771 0.05723742 0 255 0
12.958209 -0.056243837 0.44443029 0 255 0
11.698988 -0.64316863 -3.3733544 0 255 0
14.008908 -0.51093596 -2.6236072 0 255 0
14.213486 -0.65805203 -3.3779147 0 255 0
13.263077 -0.73894495 -4.8101549 0 255 0
13.493833 -0.70795745 -4.8256273 0 255 0
11.215262 -0.41497493 -3.1434479 0 255 0
13.750879 -0.19784997 -1.9082843 0 255 0
13.993808 -0.50552058 -3.9243953 0 255 0
12.014877 -0.40745541 -4.0936632 0 255 0
14.234485 0.23670356 0.32412836 0 255 0
12.459933 -0.44135126 -4.4274631 0 255 0
12.47703 -0.45102689 -4.4343419 0 255 0
12.942441 -0.55698389 -4.6819119 0 255 0
13.80892 -0.26040646 -2.9378154 0 255 0
13.821421 -0.27949977 -3.2416401 0 255 0
13.278845 -0.57539362 -4.7609296 0 255 0
13.735382 -0.47505948 -4.4521403 0 255 0
10.839163 0.011621155 -1.8372147 0 255 0
11.860153 0.32014927 -0.23698901 0 255 0
10.911761 -0.070764102 -2.3260269 0 255 0
10.90946 -0.083369382 -2.4845612 0 255 0
10.896173 -0.11114191 -3.0514328 0 255 0
11.503759 -0.27708125 -3.8744402 0 255 0
13.569776 0.16137397 -1.2345477 0 255 0
13.805972 0.20156562 -0.69834745 0 255 0
13.568942 0.037658751 -1.8584224 0 255 0
13.645218 -0.083335817 -2.5167415 0 255 0
13.706125 -0.17743982 -3.2102969 0 255 0
13.720026 -0.28614345 -3.8157971 0 255 0
10.703382 0.29268041 -1.0936562 0 255 0
10.727676 0.15424353 -1.6238244 0 255 0
11.377591 0.3867951 -0.45839322 0 255 0
10.821732 0.0265412 -2.4936693 0 255 0
12.304132 0.41141209 0.10772076 0 255 0
12.668055 0.51201791 0.44742638 0 255 0
11.067075 -0.16027826 -3.5411897 0 255 0
13.198202 0.52984166 0.65233928 0 255 0
13.38782 0.51519936 0.65579951 0 255 0
13.74928 0.50211495 0.53957981 0 255 0
13.891192 0.46282813 0.46296886 0 255 0
13.48573 0.26001135 -1.218634 0 255 0
13.569443 0.20322883 -1.1220402 0 255 0
13.711209 0.31426701 -0.67013508 0 255 0
14.009952 0.35037389 -0.19898984 0 255 0
13.572321 0.00021368347 -2.4872577 0 255 0
12.992834 -0.32058865 -4.6328664 0 255 0
13.526871 -0.1408523 -3.7474048 0 255 0
11.016373 0.37272343 -0.64576656 0 255 0
10.687426 0.22708136 -1.7277642 0 255 0
10.695587 0.097111575 -3.0011003 0 255 0
11.452268 -0.1401687 -4.0088315 0 255 0
13.256564 -0.10865472 -4.2802067 0 255 0
10.976178 0.020011963 -3.7348185 0 255 0
11.950824 -0.048554935 -4.349062 0 255 0
10.472934 0.41076055 -2.2821884 0 255 0
13.239886 0.45914158 -1.7777934 0 255 0
13.203115 0.23499458 -3.0255222 0 255 0
13.541516 0.83134311 -0.0160743 0 255 0
11.906411 0.14451148 -4.3830523 0 255 0
13.147039 0.46726996 -2.3934634 0 255 0
12.48591 0.079687566 -4.4676428 0 255 0
12.49244 0.081953496 -4.4661036 0 255 0
13.019653 0.22192085 -3.5565906 0 255 0
12.824618 0.2272782 -4.1251988 0 255 0
10.23708 0.49628606 -2.6679177 0 255 0
10.21723 0.48760381 -2.846689 0 255 0
11.750584 0.90537727 -0.33277258 0 255 0
12.174967 0.96804971 0.10105877 0 255 0
10.472403 0.3818253 -3.54368 0 255 0
10.580476 0.33484045 -3.6501503 0 255 0
10.894799 0.25838476 -3.9454026 0 255 0
11.386911 0.214 -4.223206 0 255 0
13.296835 0.7926743 -0.54254723 0 255 0
13.058698 0.7000016 -1.7001605 0 255 0
13.124084 0.57715613 -2.0526576 0 255 0
12.933057 0.4473145 -2.9037859 0 255 0
12.769821 0.38301092 -3.458292 0 255 0
12.759094 0.27936712 -4.0962415 0 255 0
12.835645 0.2691544 -3.967171 0 255 0
10.498991 0.83707279 -1.0944387 0 255 0
10.313549 0.75976872 -1.6285142 0 255 0
11.409033 0.95496678 -0.49489072 0 255 0
12.162442 0.9916932 0.096928217 0 255 0
10.438052 0.4319596 -3.6050644 0 255 0
12.489447 1.0774933 0.41635033 0 255 0
12.584976 1.1038285 0.46510369 0 255 0
13.129193 1.0552841 0.42643785 0 255 0
13.287662 1.07025 0.11389399 0 255 0
13.168551 0.94904029 -0.49396011 0 255 0
13.022635 0.80823368 -1.0749656 0 255 0
12.534381 0.53477639 -3.3678722 0 255 0
12.774679 0.57673806 -2.8462574 0 255 0
10.453482 0.92950141 -1.0923479 0 255 0
10.086953 0.7538926 -2.1393921 0 255 0
10.82308 1.018245 -0.70544064 0 255 0
12.910742 0.74845588 -2.3362873 0 255 0
9.7354889 0.78002936 -2.6137772 0 255 0
9.9673615 0.85595864 -2.1144731 0 255 0
10.171035 0.96390694 -1.5980544 0 255 0
9.9456053 0.68358922 -3.38062 0 255 0
11.973698 0.54351509 -4.2778463 0 255 0
12.223877 0.66447914 -3.8660691 0 255 0
13.034607 1.3384217 0.14605345 0 255 0
12.796432 1.0622666 -1.6357905 0 255 0
12.719331 1.0184296 -2.2860928 0 255 0
9.3060207 1.0921143 -2.4364905 0 255 0
9.4306087 0.89061439 -3.1631293 0 255 0
10.840128 1.3232499 -0.56052601 0 255 0
9.7780943 0.88647163 -3.7731493 0 255 0
10.263086 0.82480931 -4.1032872 0 255 0
10.813776 0.80313724 -4.2550588 0 255 0
12.826599 1.4143357 -0.3920058 0 255 0
11.430048 0.76927191 -4.2386036 0 255 0
11.567915 0.78177953 -4.2038465 0 255 0
12.08634 0.89759374 -3.2156892 0 255 0
12.362399 1.024083 -2.7231448 0 255 0
11.960581 0.84858102 -3.7759659 0 255 0
9.6136837 1.1962053 -2.0031259 0 255 0
9.9333191 1.2691468 -1.5294235 0 255 0
10.64448 1.4386338 -0.54105234 0 255 0
9.3219604 1.0028383 -3.4361892 0 255 0
11.435894 1.4530213 -0.26090369 0 255 0
11.559491 1.5182313 -0.096035145 0 255 0
11.774408 1.5806352 0.16106552 0 255 0
12.586374 1.647046 0.43732658 0 255 0
12.542788 1.4290437 -0.92337823 0 255 0
12.614187 1.3174851 -1.5828493 0 255 0
11.922424 1.0708481 -3.1626427 0 255 0
11.487138 0.85440373 -4.1795292 0 255 0
11.930349 0.97257394 -3.3707254 0 255 0
12.353516 1.1407624 -2.6305492 0 255 0
12.691441 1.2172714 -1.7839091 0 255 0
8.9462156 1.2216736 -2.9032042 0 255 0
9.3904667 1.2829041 -2.0766439 0 255 0
8.9766722 1.1918579 -3.035816 0 255 0
9.013257 1.1541946 -2.9334724 0 255 0
9.9800138 1.4993898 -0.94929355 0 255 0
11.721231 1.6502259 0.19189438 0 255 0
9.6842833 1.0217332 -4.0153294 0 255 0
12.100271 1.7131791 0.44603333 0 255 0
10.216159 0.95087439 -4.2358074 0 255 0
12.830297 1.6173142 0.17558494 0 255 0
12.726041 1.5906861 -0.3515448 0 255 0
12.534506 1.436789 -0.9288798 0 255 0
11.740606 1.0239549 -3.6964006 0 255 0
12.258868 1.1645051 -2.6988893 0 255 0
8.9931545 1.3625885 -2.3312163 0 255 0
9.3656406 1.414119 -1.9168663 0 255 0
9.6283321 1.5367188 -1.4168235 0 255 0
10.255506 1.6353608 -0.49326211 0 255 0
9.1978731 1.1650864 -3.7324355 0 255 0
10.980304 1.7218232 -0.17930916 0 255 0
12.008677 1.9203004 0.50205058 0 255 0
12.40893 1.4889008 -2.2093296 0 255 0
8.8855953 1.7123399 -1.7311202 0 255 0
9.174716 1.7778031 -1.227523 0 255 0
8.7379026 1.5901856 -2.2542465 0 255 0
9.5148869 1.7949281 -0.78721923 0 255 0
10.530683 1.9079605 -0.102105 0 255 0
11.244641 2.0098419 0.28467855 0 255 0
12.26181 1.9764649 0.5052557 0 255 0
12.278643 1.7350373 -1.5079393 0 255 0
11.982896 1.5656937 -2.6185837 0 255 0
12.322876 1.6041046 -2.1910198 0 255 0
9.7774906 1.986992 -0.34790343 0 255 0
8.9896059 1.3918138 -4.1861315 0 255 0
9.4743347 1.3492188 -4.5626974 0 255 0
10.60372 1.3367783 -4.3830662 0 255 0
10.917582 1.3876511 -4.1479802 0 255 0
11.002527 1.4166993 -4.039712 0 255 0
11.089353 1.4578538 -3.8798318 0 255 0
11.241961 1.5014817 -3.5355515 0 255 0
11.543985 1.5198685 -3.0482454 0 255 0
8.4770937 1.9182252 -1.5468687 0 255 0
8.7675657 1.9736588 -1.075112 0 255 0
8.7654781 1.6166428 -3.5466833 0 255 0
8.9402924 1.4409791 -4.3250217 0 255 0
9.9920807 1.3745927 -4.6076283 0 255 0
12.48381 2.1862335 0.19573343 0 255 0
12.090194 2.0590668 -0.79384905 0 255 0
12.488266 2.1851037 0.17553614 0 255 0
12.50036 2.1598282 0.20165117 0 255 0
12.069592 1.9423356 -1.4248583 0 255 0
11.404248 1.6869751 -3.0086565 0 255 0
12.183542 1.851175 -1.7429705 0 255 0
8.2157955 1.9670289 -2.0640783 0 255 0
8.3837252 1.9339783 -1.6339705 0 255 0
8.9869785 2.1975327 -0.58115077 0 255 0
8.3987827 1.855858 -2.1538107 0 255 0
9.6665249 2.1883416 -0.25104481 0 255 0
9.720377 2.1709962 -0.23897474 0 255 0
8.6028166 1.8530793 -2.7939589 0 255 0
10.233572 2.2789574 0.044129163 0 255 0
8.7556095 1.640999 -3.5365362 0 255 0
10.699084 2.3082886 0.28387865 0 255 0
10.958551 2.2802064 0.37627405 0 255 0
11.358927 2.2773805 0.50079864 0 255 0
11.799041 2.3016541 0.55904371 0 255 0
12.069122 2.2738771 0.52373862 0 255 0
12.022787 2.0654726 -0.90839446 0 255 0
12.057569 2.0999482 -0.78481162 0 255 0
12.308218 2.1947107 -0.34314519 0 255 0
12.361694 2.1654236 -0.30060369 0 255 0
11.727694 1.8674515 -2.5463159 0 255 0
8.1957521 2.1027589 -1.4345465 0 255 0
8.4748688 2.2026017 -0.97007281 0 255 0
8.9882412 2.2030535 -0.57495415 0 255 0
8.5966158 1.8562913 -2.7798781 0 255 0
8.7041044 1.8362931 -3.3163984 0 255 0
11.936848 2.0127335 -2.0630677 0 255 0
8.6303616 1.9399476 -2.9506698 0 255 0
8.6685333 1.9906236 -3.1706297 0 255 0
8.4337559 1.8080064 -4.1199384 0 255 0
8.727499 1.7104646 -4.8419695 0 255 0
11.772672 2.2035265 -1.3401492 0 255 0
-15.485422 2.6231263 0.82888484 0 255 0
7.7668915 2.2277391 -1.8592886 0 255 0
7.9541841 2.3538065 -1.3629729 0 255 0
10.791336 2.0141175 -3.3961625 0 255 0
11.028277 2.130481 -2.8906846 0 255 0
-15.236877 2.7612419 0.67630678 0 255 0
9.2529087 2.6225526 -0.16019051 0 255 0
9.7186642 2.6379335 0.00316012 0 255 0
8.5570126 2.0532396 -3.6382689 0 255 0
8.5971498 2.0484056 -3.565496 0 255 0
8.238348 1.9030061 -4.6264982 0 255 0
10.757871 2.6793923 0.43726265 0 255 0
8.3623867 1.8706238 -4.7820668 0 255 0
8.6584835 1.8943009 -5.0258551 0 255 0
9.0760403 1.8607956 -5.0719061 0 255 0
9.2908573 1.8520523 -5.0501103 0 255 0
11.973267 2.6921792 0.29874787 0 255 0
9.9132872 1.8718568 -4.8195262 0 255 0
9.9750881 1.8722123 -4.7783618 0 255 0
10.658084 2.1643562 -3.3543999 0 255 0
10.944733 2.2237313 -2.8638825 0 255 0
10.434351 2.0306718 -4.126411 0 255 0
10.544558 2.0160418 -3.9219093 0 255 0
11.282468 2.2871125 -2.3995676 0 255 0
11.527456 2.3290956 -1.8842942 0 255 0
10.330569 1.9209977 -4.4205084 0 255 0
-15.477695 2.7891107 0.14816087 0 255 0
7.3445344 2.4676659 -2.0923231 0 255 0
8.1970673 2.6467927 -0.88661408 0 255 0
8.4729948 2.2865059 -2.857244 0 255 0
10.171842 2.7529633 0.24077109 0 255 0
8.1987791 2.0795548 -4.0337362 0 255 0
8.0999508 2.0115433 -4.5795774 0 255 0
8.193222 1.9773514 -4.7337461 0 255 0
11.46406 2.8411667 0.45567766 0 255 0
11.945496 2.7353966 0.24495299 0 255 0
11.324807 2.5877838 -1.1446481 0 255 0
11.602514 2.6089935 -0.64250469 0 255 0
11.704771 2.7376168 -0.35670561 0 255 0
11.892279 2.6929359 -0.21502779 0 255 0
11.385489 2.4306924 -1.8299515 0 255 0
10.250222 2.0525987 -4.4203348 0 255 0
10.480948 2.0930359 -3.9020004 0 255 0
11.236338 2.327028 -2.3837557 0 255 0
7.4125152 2.5771761 -1.7733617 0 255 0
7.81427 2.6012323 -1.3340209 0 255 0
7.4007478 2.4849908 -2.3768013 0 255 0
8.1746244 2.6906319 -0.88456488 0 255 0
7.4645262 2.4824083 -2.4192779 0 255 0
7.4771576 2.467823 -2.3960111 0 255 0
8.2243137 2.6904449 -0.83388966 0 255 0
8.6003361 2.7641442 -0.46555009 0 255 0
8.0122776 2.4096086 -2.5938451 0 255 0
9.3645449 2.8744118 0.046251353 0 255 0
10.575427 2.8958673 0.42356068 0 255 0
10.858109 2.8960848 0.47032425 0 255 0
11.434887 2.7729492 -0.58419973 0 255 0
11.76265 2.8073442 -0.16939332 0 255 0
-14.77111 3.0358429 0.39308766 0 255 0
-14.969403 2.9669466 -0.12601252 0 255 0
-14.850679 2.9637184 0.0024260313 0 255 0
7.0180631 2.6373339 -2.1919105 0 255 0
7.1326566 2.6536424 -2.0161436 0 255 0
8.9908085 2.9178903 -0.10311499 0 255 0
9.9912844 2.9907517 0.32467386 0 255 0
7.9561396 2.3490877 -3.9604299 0 255 0
11.01666 2.697731 -1.6948472 0 255 0
-15.088053 3.3181374 1.8252733 0 255 0
-15.589522 3.0352793 -0.10321584 0 255 0
-14.963584 3.2123489 1.0990314 0 255 0
-15.07641 3.0421867 -0.26642773 0 255 0
-14.903876 2.9978852 -0.1677049 0 255 0
-14.646964 3.1218414 0.32157657 0 255 0
7.9153895 2.6194627 -2.7861097 0 255 0
9.4980135 3.1202333 0.31127629 0 255 0
8.3188534 2.6025689 -3.0823302 0 255 0
10.216479 2.5788116 -3.208564 0 255 0
10.47859 2.6560831 -2.7071466 0 255 0
10.750172 2.7153382 -2.2108934 0 255 0
6.7229371 2.6882005 -2.7088666 0 255 0
7.2641811 2.7312469 -2.8739905 0 255 0
7.8632655 2.7172556 -2.9247129 0 255 0
7.7174616 2.4545395 -4.4972787 0 255 0
8.1621952 2.5852571 -3.5044057 0 255 0
10.808981 3.030237 -0.98477757 0 255 0
11.059832 3.1147904 -0.47561502 0 255 0
11.249908 3.1657097 -0.00033999869 0 255 0
10.022055 2.5456553 -3.7450883 0 255 0
6.3152771 2.8778512 -2.5248883 0 255 0
7.130096 2.7846024 -3.0378959 0 255 0
8.4003325 3.1675355 -0.3970702 0 255 0
7.1730981 2.8087106 -3.1038923 0 255 0
7.6169429 2.6504266 -3.8973365 0 255 0
7.9174953 2.7283769 -3.411 0 255 0
7.6285424 2.5952377 -4.4842148 0 255 0
7.6833062 2.5733719 -4.5983572 0 255 0
10.269677 3.3581903 0.50647998 0 255 0
8.091794 2.4745073 -5.0500731 0 255 0
8.6142979 2.4152131 -5.2483568 0 255 0
9.8719759 2.8177545 -3.0719025 0 255 0
10.395742 2.9684992 -2.0739059 0 255 0
8.8463497 2.4228859 -5.2575665 0 255 0
9.7781706 2.7242982 -3.6510727 0 255 0
9.1423645 2.4059784 -5.2037959 0 255 0
9.3328218 2.4240472 -5.1269588 0 255 0
9.8444271 2.5996628 -4.3132496 0 255 0
9.8273678 2.6300545 -4.241756 0 255 0
9.6875944 2.4542909 -4.8489499 0 255 0
-14.482239 3.2561646 -0.39338282 0 255 0
6.4450493 2.8589678 -3.2876477 0 255 0
7.1336975 3.0751565 -1.7861997 0 255 0
7.1993437 3.0641472 -1.7400067 0 255 0
6.4657464 2.8581085 -3.2931454 0 255 0
7.6049314 3.1637001 -1.3227751 0 255 0
8.2726469 3.3189211 -0.38038659 0 255 0
8.4672947 3.2755709 -0.25612438 0 255 0
8.7032986 3.4022951 0.062882349 0 255 0
8.7529087 3.4136865 0.12288562 0 255 0
7.6145625 2.8121195 -3.4191635 0 255 0
10.790921 3.4058137 0.27991745 0 255 0
10.85747 3.4119759 0.18972313 0 255 0
10.556692 3.2551384 -0.89915395 0 255 0
10.492773 3.0909119 -1.4972672 0 255 0
9.7780209 2.8773499 -3.0337701 0 255 0
10.030741 2.9736443 -2.5271654 0 255 0
10.239285 3.0773766 -2.0183306 0 255 0
10.499838 3.0739107 -1.5413324 0 255 0
9.7916355 2.6541169 -4.2950864 0 255 0
-14.171437 3.491668 0.019481102 0 255 0
-14.152219 3.4772844 -0.085610375 0 255 0
5.986465 3.0068283 -3.014761 0 255 0
6.385571 3.1170259 -2.244096 0 255 0
6.0698695 2.9512017 -3.0793483 0 255 0
6.5932527 3.1230905 -2.1080074 0 255 0
7.144052 3.2249291 -1.7344571 0 255 0
7.8083768 3.3456368 -0.82514858 0 255 0
6.939291 2.9323366 -3.6021216 0 255 0
8.962677 3.566031 0.45040941 0 255 0
9.0251493 3.4777315 0.41642809 0 255 0
7.3805413 2.8188858 -3.8814924 0 255 0
9.7229033 3.5422029 0.65435719 0 255 0
10.0426 3.5236053 0.59358138 0 255 0
10.304583 3.4983978 0.5099048 0 255 0
10.767606 3.4812012 0.20525506 0 255 0
10.814425 3.3460159 -0.388358 0 255 0
9.4716434 2.9148836 -3.5453727 0 255 0
9.4980593 2.7485094 -4.8055301 0 255 0
-15.566139 3.563453 -0.24032941 0 255 0
-15.094172 3.4954965 -0.53298926 0 255 0
-14.441944 3.6943536 0.68890095 0 255 0
-14.485458 3.7195992 0.77282089 0 255 0
-14.113224 3.5408967 -0.021765318 0 255 0
-14.236122 3.5158319 -0.55831891 0 255 0
6.0730619 3.1598351 -2.4820423 0 255 0
7.7054381 3.4579759 -0.78628027 0 255 0
8.0180817 3.5300539 -0.33108506 0 255 0
9.116415 3.6026018 0.57445687 0 255 0
9.7596073 3.6105378 0.67714846 0 255 0
-14.305603 4.1657467 3.215621 0 255 0
-14.625515 3.9538355 2.1046197 0 255 0
-14.342505 4.0948238 2.5603664 0 255 0
-14.733037 3.8697579 1.5206856 0 255 0
-14.720501 3.8506203 1.3981013 0 255 0
-14.416483 3.7913873 0.72697431 0 255 0
-14.614964 3.5131218 -0.65995657 0 255 0
9.2709808 3.2490692 -2.843991 0 255 0
10.044923 3.4611382 -1.3300369 0 255 0
10.287271 3.496084 -0.81447798 0 255 0
10.535294 3.6120241 -0.31817862 0 255 0
9.5595064 3.3304162 -2.3553658 0 255 0
9.2038546 3.0882585 -3.3813498 0 255 0
-14.656882 3.9755127 1.4655094 0 255 0
7.5405273 3.7732332 -0.15431 0 255 0
7.3576875 3.5682061 -1.2730725 0 255 0
10.079303 3.8211656 0.58058661 0 255 0
8.9893799 3.249753 -3.3517668 0 255 0
9.7989044 3.4290636 -1.8466728 0 255 0
8.7281742 2.98594 -5.1323476 0 255 0
9.2704258 3.0902193 -4.107831 0 255 0
8.8354797 2.9715271 -5.1144505 0 255 0
9.2101412 3.0628176 -4.7177157 0 255 0
6.4157624 3.5174532 -2.0649357 0 255 0
7.2588377 3.7755327 -0.61281794 0 255 0
8.2160034 3.8827126 0.25522554 0 255 0
7.2685084 3.2161362 -4.325604 0 255 0
7.3520622 3.1980553 -4.4025259 0 255 0
7.6888542 3.1333025 -4.7265134 0 255 0
10.241879 3.9495811 0.33994827 0 255 0
8.8767824 3.3503618 -3.3102415 0 255 0
8.1671085 3.0595207 -5.0435286 0 255 0
8.7476444 3.0546563 -5.0811739 0 255 0
9.1474762 3.1818438 -4.4155927 0 255 0
-14.38266 4.2814436 1.9145784 0 255 0
-14.146046 4.2960429 2.4359715 0 255 0
-13.921005 4.3909559 2.9401925 0 255 0
7.0121765 3.9734972 0.084708668 0 255 0
5.8338928 3.5412607 -2.4440417 0 255 0
6.3318086 3.6441269 -2.0509548 0 255 0
5.7578425 3.422281 -3.5367832 0 255 0
6.5523467 3.6830995 -1.8985623 0 255 0
7.6955476 4.0625086 0.33719882 0 255 0
6.8907743 3.6606209 -1.6859937 0 255 0
7.1443176 3.7642052 -1.2104924 0 255 0
8.0555878 3.9971666 0.33356148 0 255 0
8.3275661 4.0253897 0.45599002 0 255 0
6.2383447 3.3446374 -3.8396175 0 255 0
6.7715387 3.2957597 -4.0360084 0 255 0
9.7940798 4.084012 0.6434803 0 255 0
10.141309 4.0240741 0.38273314 0 255 0
10.212717 4.019382 0.22950171 0 255 0
9.6660404 3.8046465 -1.1978065 0 255 0
10.208389 3.9287934 -0.21459544 0 255 0
9.0219936 3.4966798 -2.7620056 0 255 0
9.3041286 3.5712068 -2.2716773 0 255 0
9.5686035 3.63696 -1.772718 0 255 0
8.7945099 3.3976152 -3.9151931 0 255 0
8.8620176 3.3372507 -3.737818 0 255 0
8.9443483 3.3045747 -3.9730544 0 255 0
9.007822 3.2288339 -4.6462107 0 255 0
-15.452812 4.0559697 -0.12609412 0 255 0
-14.123293 3.9689941 -0.819327 0 255 0
-13.816833 3.9667528 -0.74291635 0 255 0
-13.646585 3.9568391 -0.35262513 0 255 0
-13.570389 4.0562925 -0.24070992 0 255 0
6.4082031 4.1367154 0.23552583 0 255 0
6.4966063 4.1441774 0.3157489 0 255 0
5.4749932 3.600992 -2.8912556 0 255 0
6.8118134 3.9863214 -0.16378261 0 255 0
7.1570802 4.1780934 0.43573251 0 255 0
5.4821377 3.5898683 -2.8976719 0 255 0
5.7101164 3.6741624 -2.4549823 0 255 0
6.9214749 3.9453087 -0.4848302 0 255 0
6.7138305 3.828325 -1.642571 0 255 0
6.9697204 3.8922119 -1.1425878 0 255 0
7.0598817 3.8669968 -0.94754767 0 255 0
7.7446837 4.1611509 0.4503893 0 255 0
8.5250883 4.160593 0.63158309 0 255 0
9.2320614 4.161819 0.76585847 0 255 0
9.409586 4.1494288 0.75132602 0 255 0
7.7516475 3.3530207 -4.661118 0 255 0
9.5322018 3.9233894 -1.1568298 0 255 0
9.8248997 3.9332476 -0.64636648 0 255 0
10.036923 4.0814319 -0.15099259 0 255 0
8.261157 3.3097839 -4.8926768 0 255 0
-15.411153 4.1837254 -0.072753973 0 255 0
-15.300735 4.1485868 -0.20705764 0 255 0
-14.359076 4.345912 1.2643344 0 255 0
-14.989895 4.0867815 -0.49920931 0 255 0
-14.243382 4.2854147 0.88329756 0 255 0
-14.477523 4.0069036 -0.77099174 0 255 0
-13.896646 4.2041416 0.38650379 0 255 0
-13.540604 4.0470867 -0.42285332 0 255 0
5.6938477 3.7474916 -2.4066684 0 255 0
6.6634336 4.0619869 -0.4052068 0 255 0
9.7591343 4.2277341 0.55272985 0 255 0
8.5087185 3.68714 -3.182224 0 255 0
8.7802553 3.7368479 -2.6823051 0 255 0
8.5078983 3.5111132 -4.4394002 0 255 0
-14.124107 4.875916 3.6867468 0 255 0
-13.648485 4.7653408 3.3868861 0 255 0
-13.627018 4.8179126 3.4254146 0 255 0
-13.521997 4.789979 3.3048377 0 255 0
-14.207572 4.4931736 1.779719 0 255 0
-13.860694 4.5811315 2.2328997 0 255 0
-13.512943 4.6630483 2.6862998 0 255 0
5.7188687 4.3201494 0.068511575 0 255 0
5.8627806 4.2718501 0.31019402 0 255 0
6.0157256 4.2999868 0.49041554 0 255 0
6.1635528 4.2306566 -0.18056759 0 255 0
6.6416717 4.311552 0.56449687 0 255 0
8.9745483 3.8835862 -2.1637847 0 255 0
9.1897068 3.9803727 -1.6540534 0 255 0
8.268466 3.7044754 -3.7130079 0 255 0
-14.947693 4.2548137 -0.4472234 0 255 0
-13.359705 4.7741795 2.6007249 0 255 0
-14.443448 4.2398291 -0.76361984 0 255 0
5.2861481 4.4472766 0.24100193 0 255 0
5.6323152 4.4889417 0.58567238 0 255 0
6.1445584 4.4438305 0.64680398 0 255 0
5.9135861 4.078908 -1.9175479 0 255 0
6.2213163 4.178905 -1.4585583 0 255 0
6.4685822 4.1862745 -0.94458359 0 255 0
7.2533202 4.5066457 0.71205044 0 255 0
5.6916223 3.7770829 -3.7665539 0 255 0
8.0078278 3.6842775 -4.224875 0 255 0
-13.153818 4.9422827 3.0810461 0 255 0
-14.050132 4.6527815 1.0646204 0 255 0
-13.318314 4.522028 0.084477365 0 255 0
-13.141006 4.3532305 -0.6790477 0 255 0
5.7147489 4.2119684 -1.8496822 0 255 0
8.0247135 4.6398077 0.82593739 0 255 0
6.8063073 3.8205805 -4.045465 0 255 0
7.4807491 3.8572235 -3.9858038 0 255 0
9.0415287 4.3298635 -0.97783542 0 255 0
9.3054714 4.3566661 -0.4625648 0 255 0
9.556366 4.4237909 0.051672786 0 255 0
7.798449 3.957998 -3.5542402 0 255 0
8.0951481 4.0136404 -3.0292921 0 255 0
8.3526058 4.0957928 -2.5289938 0 255 0
-13.594467 4.839057 2.0503383 0 255 0
-13.270264 4.6391687 0.16706137 0 255 0
-13.075065 4.6009588 -0.077685818 0 255 0
-12.934174 4.5350146 -0.41580039 0 255 0
4.9451566 4.5648274 -0.23779672 0 255 0
5.0181427 4.5563498 -0.28561053 0 255 0
5.4403167 4.5184178 -0.50913048 0 255 0
5.4723144 4.4966955 -0.43434486 0 255 0
5.6080384 4.4928622 -0.58206868 0 255 0
6.682303 4.74016 0.80098599 0 255 0
4.9127803 4.1706905 -2.859612 0 255 0
4.9640865 4.1581745 -2.751791 0 255 0
5.1902008 4.2333012 -2.2414029 0 255 0
5.2132688 4.2395177 -2.204829 0 255 0
5.9604187 4.4071255 -0.73577696 0 255 0
6.9888334 4.7185278 0.81800562 0 255 0
5.1781063 4.0129185 -3.5460498 0 255 0
5.1861782 3.9897599 -3.5193584 0 255 0
7.328732 4.7064137 0.8376711 0 255 0
5.2441249 3.9803972 -3.57933 0 255 0
5.681921 3.9445496 -3.8348751 0 255 0
6.1719446 3.9032183 -3.9569936 0 255 0
6.2396874 3.8973932 -3.9683712 0 255 0
8.6359768 4.7184734 0.73339701 0 255 0
9.1083775 4.6558704 0.42315567 0 255 0
8.8993778 4.4373369 -0.92476994 0 255 0
7.9883113 4.051383 -3.0792556 0 255 0
8.0036926 4.0798864 -2.9939201 0 255 0
8.336606 4.1704779 -2.3877387 0 255 0
8.7792816 4.3114886 -1.4909819 0 255 0
8.5656309 4.2144351 -2.0089102 0 255 0
-14.799132 4.6684842 -0.28047422 0 255 0
-13.850315 4.8645086 1.5326509 0 255 0
-13.402893 5.0145435 1.9167031 0 255 0
-13.815468 4.8193278 0.91910416 0 255 0
-12.983604 5.0713129 2.3581171 0 255 0
-13.6548 4.7363119 0.60777944 0 255 0
-13.895484 4.522469 -1.001824 0 255 0
-13.370691 4.5228987 -1.1092676 0 255 0
-12.886983 4.5378199 -0.83866113 0 255 0
4.4740233 4.7099352 -0.021456044 0 255 0
4.8182282 4.7603254 0.33371401 0 255 0
4.9158263 4.5753527 -0.28060105 0 255 0
5.6436768 4.8222585 0.67855757 0 255 0
6.031909 4.7732425 0.74059939 0 255 0
4.9295311 4.1912508 -2.7408986 0 255 0
5.615274 4.4701357 -1.2008969 0 255 0
5.4427857 4.3556929 -1.7459346 0 255 0
5.7137666 4.4317708 -1.2715889 0 255 0
7.8307157 4.7980719 0.89963859 0 255 0
8.1124477 4.8256006 0.8814882 0 255 0
6.9984646 4.1212964 -3.7789259 0 255 0
9.0363035 4.7227774 0.24231844 0 255 0
9.1486998 4.6571636 0.21750878 0 255 0
9.0151062 4.5800991 -0.34743375 0 255 0
7.5586724 4.100913 -3.4621642 0 255 0
8.41012 4.325923 -1.9495817 0 255 0
-15.149611 4.8091688 0.2792201 0 255 0
-13.734143 4.9646969 1.4547957 0 255 0
-14.37855 4.6498632 -0.67851049 0 255 0
-12.684508 5.2428789 2.8022754 0 255 0
-12.818961 4.701263 -0.2325885 0 255 0
4.205307 4.7124729 -0.52382994 0 255 0
4.3672118 4.7037973 -0.1774558 0 255 0
4.6935391 4.6591268 -0.78773648 0 255 0
5.4703946 4.8734417 0.63687819 0 255 0
4.9823484 4.5468321 -1.5264705 0 255 0
5.2054901 4.5829158 -1.0295391 0 255 0
4.7328854 4.2896419 -3.2775884 0 255 0
7.5109067 4.9577565 0.96301216 0 255 0
8.8173981 4.7306919 -0.27099141 0 255 0
-14.041809 5.4213557 3.6148653 0 255 0
-13.454833 5.4213152 3.5756907 0 255 0
-12.964916 5.3646784 3.3425772 0 255 0
-12.6188 5.2870283 2.7609184 0 255 0
-13.540679 4.945621 0.7750631 0 255 0
-12.836105 5.1856756 2.2543459 0 255 0
-12.610765 4.7406154 -1.0242853 0 255 0
4.2728086 4.8389559 0.039980821 0 255 0
4.7135925 4.9462886 0.36444062 0 255 0
4.8416409 4.9544172 0.42297524 0 255 0
4.4836912 4.6985273 -1.2808967 0 255 0
4.7182617 4.5384159 -2.0471447 0 255 0
6.7460294 5.038487 0.89665747 0 255 0
7.4928551 4.4406505 -2.7965438 0 255 0
8.2389345 4.6925716 -1.293128 0 255 0
7.265295 4.3062015 -3.3141418 0 255 0
7.7820497 4.5060015 -2.313117 0 255 0
8.0572968 4.5755816 -1.8155798 0 255 0
8.5223665 4.7115254 -0.78923368 0 255 0
-13.310836 5.2086911 1.202423 0 255 0
-13.064705 5.2563715 1.6958474 0 255 0
-13.099939 5.0219274 0.49236462 0 255 0
-12.326969 4.8590817 -0.54422987 0 255 0
3.7248149 4.8778157 -0.32050651 0 255 0
3.9629192 4.8089719 -1.0532107 0 255 0
-14.606064 5.0659494 -0.016576523 0 255 0
-12.576455 5.1102376 0.22173356 0 255 0
-12.327557 5.1354017 0.097670034 0 255 0
-12.102725 5.0931454 -0.14058951 0 255 0
3.4484584 4.9180036 -0.82159978 0 255 0
3.9938915 5.1253896 0.098370887 0 255 0
4.1999054 4.7997394 -1.8449191 0 255 0
4.2583466 4.7209797 -2.5503719 0 255 0
4.4016113 4.6220541 -2.6070361 0 255 0
5.7367764 4.515151 -3.8493276 0 255 0
6.3778377 4.5583982 -3.5463779 0 255 0
6.4944267 4.4771452 -3.5806079 0 255 0
8.4930058 5.0997157 0.39420143 0 255 0
-12.66719 5.4263644 1.4686773 0 255 0
-12.818824 5.3464327 0.95019537 0 255 0
-12.503969 5.4631891 1.5424771 0 255 0
-12.324301 5.4778299 1.9409572 0 255 0
-13.334208 5.0269146 -1.2455202 0 255 0
-12.426952 5.2946882 0.50206566 0 255 0
-12.747513 5.0087008 -1.342736 0 255 0
-12.060857 5.1408968 -0.05514257 0 255 0
-12.190105 5.0182066 -1.2624019 0 255 0
-12.034584 5.0227909 -1.1941433 0 255 0
-11.795235 5.0191603 -0.85435379 0 255 0
-11.76152 5.034615 -0.72295654 0 255 0
-11.564965 5.1577764 -0.33600351 0 255 0
2.9859614 5.0653791 -0.59720248 0 255 0
3.2352109 5.1881237 -0.17402437 0 255 0
3.7249689 4.9654393 -1.5355601 0 255 0
3.9486611 4.9042406 -1.7654841 0 255 0
4.0767884 4.8541675 -2.0862207 0 255 0
4.2070093 4.6998792 -3.1296093 0 255 0
