ply
format ascii 1.0
comment PCL generated
element vertex 1216
property float x
property float y
property float z
property uchar red
property uchar green
property uchar blue
element camera 0
property float view_px
property float view_py
property float view_pz
property float x_axisx
property float x_axisy
property float x_axisz
property float y_axisx
property float y_axisy
property float y_axisz
property float z_axisx
property float z_axisy
property float z_axisz
property float focal
property float scalex
property float scaley
property float centerx
property float centery
property int viewportx
property int viewporty
property float k1
property float k2
end_header
-22.011559 11.9262 -4.9279127 255 0 0
-21.61751 11.836637 -5.2941356 255 0 0
-23.004942 11.858533 -6.9366851 255 0 0
-22.47909 11.978836 -7.1709332 255 0 0
-23.461449 12.209641 -6.6520338 255 0 0
-22.990177 12.134234 -6.9729519 255 0 0
-21.621544 12.387939 -5.4321728 255 0 0
-22.440769 12.074582 -7.1929784 255 0 0
-21.424978 12.299774 -5.8737211 255 0 0
-21.748241 12.074256 -7.078362 255 0 0
-21.655949 12.085596 -6.9992466 255 0 0
-21.404802 12.180249 -6.483717 255 0 0
-23.863924 12.487643 -5.3121657 255 0 0
-23.977272 12.37485 -5.8855376 255 0 0
-23.875362 12.316195 -6.1704631 255 0 0
-23.302134 12.547812 -4.9203053 255 0 0
-23.244829 12.5502 -4.9050274 255 0 0
-22.547047 12.5245 -4.8881063 255 0 0
-22.021572 12.475626 -5.0779552 255 0 0
-23.25399 12.698801 -4.9580197 255 0 0
-21.79855 12.620572 -7.2548537 255 0 0
-21.598061 12.642374 -7.1151958 255 0 0
-23.894735 12.861127 -6.3104682 255 0 0
-23.449514 12.768847 -6.7459579 255 0 0
-22.968637 12.688141 -7.0748839 255 0 0
-22.043623 13.01868 -5.2623844 255 0 0
-22.414454 12.626928 -7.3049006 255 0 0
-21.579884 12.928952 -5.6685529 255 0 0
-21.453386 12.87969 -5.893321 255 0 0
-21.340389 12.778848 -6.3771834 255 0 0
-21.357037 12.729242 -6.6366191 255 0 0
-23.892914 13.060849 -5.4136653 255 0 0
-24.037907 12.93443 -5.9641032 255 0 0
-23.251583 13.092798 -5.085825 255 0 0
-23.085905 13.096616 -5.0678616 255 0 0
-22.597618 13.074307 -5.087585 255 0 0
-22.455206 12.823758 -7.3472228 255 0 0
-23.924389 13.27001 -5.4353361 255 0 0
-22.970783 13.06225 -7.180995 255 0 0
-22.471697 13.186872 -7.4394727 255 0 0
-22.344667 13.178339 -7.4617109 255 0 0
-21.838591 13.173086 -7.4045773 255 0 0
-21.315086 13.341931 -6.465723 255 0 0
-21.566467 13.198682 -7.2276959 255 0 0
-21.325666 13.285647 -6.7484565 255 0 0
-24.242647 13.506964 -5.9661574 255 0 0
-24.243931 13.523123 -5.9080257 255 0 0
-23.920837 13.392029 -6.5662327 255 0 0
-23.243391 13.639868 -5.2380414 255 0 0
-23.021999 13.63295 -5.2434583 255 0 0
-23.459919 13.311188 -6.9090133 255 0 0
-22.6064 13.612213 -5.2855177 255 0 0
-22.994385 13.243917 -7.2199702 255 0 0
-22.060959 13.564893 -5.4330359 255 0 0
-21.574383 13.482312 -5.8064036 255 0 0
-21.443913 13.436914 -6.0129123 255 0 0
-24.267677 13.557623 -5.959331 255 0 0
-24.023054 13.649979 -5.4585309 255 0 0
-23.808907 13.670194 -5.3355389 255 0 0
-22.439245 13.461863 -7.4997706 255 0 0
-23.396114 13.860174 -7.1007886 255 0 0
-22.966362 13.797354 -7.347589 255 0 0
-22.515379 13.751822 -7.5160427 255 0 0
-22.412937 13.747159 -7.5329771 255 0 0
-21.599754 14.045697 -5.8735404 255 0 0
-21.408407 13.979663 -6.1863246 255 0 0
-21.731735 13.751142 -7.3843045 255 0 0
-21.630632 13.761447 -7.3053083 255 0 0
-21.340181 13.875348 -6.7248135 255 0 0
-21.357723 13.854444 -6.8263164 255 0 0
-24.597166 14.076553 -5.8898468 255 0 0
-24.39818 13.985006 -6.5021405 255 0 0
-23.950209 13.936361 -6.8040385 255 0 0
-23.248405 14.185074 -5.337348 255 0 0
-22.835415 14.172235 -5.400146 255 0 0
-23.452564 13.86828 -7.0683241 255 0 0
-22.624174 14.164087 -5.4328732 255 0 0
-22.059855 14.121826 -5.5674481 255 0 0
-24.308743 14.262683 -5.4302092 255 0 0
-24.57263 14.094327 -6.4178061 255 0 0
-24.40716 14.051312 -6.5507307 255 0 0
-23.779598 14.250845 -5.2985682 255 0 0
-21.674763 13.970566 -7.3272305 255 0 0
-24.79118 14.326859 -5.8294878 255 0 0
-24.861631 14.28966 -6.3011322 255 0 0
-21.391701 14.141439 -6.8615842 255 0 0
-24.424198 14.432712 -5.4042997 255 0 0
-22.9286 14.212064 -7.3945827 255 0 0
-23.940859 14.49053 -6.9334517 255 0 0
-23.420094 14.432831 -7.153913 255 0 0
-22.904797 14.370776 -7.408792 255 0 0
-22.033651 14.681961 -5.6683917 255 0 0
-22.371361 14.317636 -7.5416927 255 0 0
-21.568073 14.602216 -5.9976439 255 0 0
-21.414896 14.5392 -6.2910719 255 0 0
-21.747271 14.336215 -7.3513846 255 0 0
-21.425001 14.431613 -6.8894277 255 0 0
-24.292324 14.855875 -5.1184306 255 0 0
-24.484959 14.550364 -6.751184 255 0 0
-23.731596 14.784143 -5.18889 255 0 0
-23.160297 14.780848 -5.3558888 255 0 0
-23.943384 14.502625 -6.9337749 255 0 0
-22.708122 14.721994 -5.4832654 255 0 0
-22.593796 14.723862 -5.5101924 255 0 0
-25.051672 14.667371 -6.6435251 255 0 0
-23.667021 14.956324 -5.1427426 255 0 0
-24.166059 15.202664 -4.8873959 255 0 0
-24.468327 14.827978 -6.8011503 255 0 0
-22.298784 14.898361 -7.5431666 255 0 0
-21.854885 14.91293 -7.410944 255 0 0
-24.689053 15.37413 -4.7226334 255 0 0
-25.034565 15.109265 -6.7822127 255 0 0
-24.754513 15.110812 -6.7852659 255 0 0
-24.435619 15.10658 -6.8253493 255 0 0
-23.892542 15.061963 -6.9814525 255 0 0
-23.373997 15.00159 -7.2060895 255 0 0
-22.535938 15.300024 -5.5603313 255 0 0
-22.846836 14.941671 -7.4472823 255 0 0
-21.99638 15.243469 -5.7605267 255 0 0
-21.57398 15.164286 -6.0797024 255 0 0
-21.419796 15.096417 -6.404222 255 0 0
-21.472927 15.005094 -6.9632521 255 0 0
-24.621616 15.482468 -4.605648 255 0 0
-24.019417 15.503558 -4.7298846 255 0 0
-23.518339 15.494354 -5.0157232 255 0 0
-23.046383 15.376599 -5.3356419 255 0 0
-23.940336 15.784818 -4.633348 255 0 0
-22.812298 15.503839 -7.5222259 255 0 0
-22.277256 15.466046 -7.6152034 255 0 0
-21.572441 15.721313 -6.1940513 255 0 0
-21.426506 15.654508 -6.5182309 255 0 0
-21.892412 15.477209 -7.504797 255 0 0
-21.49217 15.555402 -7.062273 255 0 0
-24.993587 15.712604 -6.8138704 255 0 0
-24.670313 15.699527 -6.839282 255 0 0
-24.400311 15.679358 -6.8906813 255 0 0
-23.858501 15.627554 -7.0604167 255 0 0
-23.041868 15.915759 -5.4477477 255 0 0
-23.331905 15.568033 -7.286099 255 0 0
-22.523968 15.86138 -5.6793666 255 0 0
-21.971373 15.803406 -5.8821516 255 0 0
-23.898367 16.120932 -4.6067863 255 0 0
-23.55517 16.022503 -4.9909406 255 0 0
-23.496244 16.006344 -5.0555553 255 0 0
-24.402365 15.905911 -6.9241023 255 0 0
-23.908689 16.51795 -4.7477088 255 0 0
-23.098795 16.322205 -5.6708798 255 0 0
-23.316719 16.126125 -7.3936124 255 0 0
-22.789318 16.05175 -7.6625571 255 0 0
-21.989277 16.353003 -6.0246611 255 0 0
-22.268513 16.018353 -7.7727728 255 0 0
-21.547764 16.270752 -6.3634906 255 0 0
-21.450977 16.229416 -6.5634322 255 0 0
-21.83606 16.029818 -7.6344867 255 0 0
-21.477434 16.111351 -7.1705823 255 0 0
-24.945744 16.27965 -6.8186622 255 0 0
-23.928593 16.644152 -4.8339658 255 0 0
-24.392872 16.22687 -6.9622693 255 0 0
-23.548742 16.483757 -5.3881192 255 0 0
-24.195805 16.213842 -7.0262403 255 0 0
-23.84026 16.184868 -7.1535077 255 0 0
-23.126556 16.468359 -5.7590208 255 0 0
-22.963909 16.430056 -5.8033962 255 0 0
-22.556248 16.397055 -5.8851027 255 0 0
-23.994213 16.665606 -4.722507 255 0 0
-23.612253 16.563478 -5.383122 255 0 0
-23.563137 16.564865 -5.4585319 255 0 0
-24.367186 16.441078 -6.9774961 255 0 0
-24.896397 16.566032 -6.8059855 255 0 0
-21.791157 16.57106 -7.8110495 255 0 0
-23.792465 16.755194 -7.2086005 255 0 0
-23.304932 16.685299 -7.5007014 255 0 0
-22.614216 16.946457 -6.0612822 255 0 0
-22.809322 16.604721 -7.8093839 255 0 0
-21.996553 16.907421 -6.1557302 255 0 0
-22.290882 16.562969 -7.9601164 255 0 0
-21.527897 16.825836 -6.4967723 255 0 0
-21.450909 16.794399 -6.6463056 255 0 0
-21.440567 16.667858 -7.2882786 255 0 0
-24.832258 16.884247 -6.7709136 255 0 0
-24.057632 17.158922 -5.257875 255 0 0
-23.959221 17.131538 -5.4073596 255 0 0
-24.305273 16.821524 -6.9717274 255 0 0
-23.670256 17.083284 -5.7553325 255 0 0
-23.197969 16.996731 -5.9985952 255 0 0
-22.591724 16.968559 -6.0687833 255 0 0
-22.340088 16.668875 -7.9883709 255 0 0
-24.102083 17.371986 -5.3971648 255 0 0
-22.80806 17.165329 -7.9332075 255 0 0
-22.354876 17.113607 -8.0894728 255 0 0
-22.213879 17.1054 -8.0966568 255 0 0
-21.403843 17.343735 -6.796948 255 0 0
-21.726053 17.136604 -7.9097257 255 0 0
-21.418369 17.22661 -7.4045467 255 0 0
-24.212509 17.426077 -6.9113102 255 0 0
-23.738781 17.336672 -7.2311764 255 0 0
-23.160793 17.537298 -6.0822272 255 0 0
-23.285213 17.248816 -7.5929074 255 0 0
-22.576937 17.500362 -6.1373014 255 0 0
-22.442455 17.496025 -6.1456008 255 0 0
-21.960546 17.473705 -6.2367048 255 0 0
-21.509846 17.391472 -6.5689564 255 0 0
-24.70631 17.501564 -6.6547155 255 0 0
-24.151329 17.665863 -5.5634289 255 0 0
-23.681297 17.59963 -5.8774395 255 0 0
-22.551041 17.636206 -6.1423583 255 0 0
-24.62627 17.827156 -6.5594611 255 0 0
-24.16007 17.942425 -6.8713474 255 0 0
-23.266396 17.80957 -7.6898837 255 0 0
-22.766653 17.733406 -8.028636 255 0 0
-21.516708 17.963985 -6.6100798 255 0 0
-22.257664 17.677755 -8.1452341 255 0 0
-21.392393 17.895264 -6.933569 255 0 0
-21.776115 17.705908 -7.9713988 255 0 0
-21.448641 17.79744 -7.4888363 255 0 0
-24.503584 18.154808 -6.010107 255 0 0
-24.170223 18.100903 -5.8821712 255 0 0
-24.156651 18.025885 -6.8618846 255 0 0
-23.671015 18.161333 -5.9683118 255 0 0
-24.105276 18.008013 -6.9179869 255 0 0
-23.692083 17.891018 -7.3108411 255 0 0
-23.056622 18.113705 -6.0724273 255 0 0
-22.459671 18.089214 -6.138577 255 0 0
-21.91115 18.042664 -6.2811217 255 0 0
-24.489544 18.187551 -6.2801251 255 0 0
-23.06724 18.207048 -6.0645061 255 0 0
-24.305206 18.285172 -6.1410537 255 0 0
-23.675526 18.448009 -7.4318981 255 0 0
-23.243303 18.362225 -7.8063321 255 0 0
-22.39259 18.664932 -6.1331997 255 0 0
-22.751291 18.291525 -8.0906181 255 0 0
-21.86005 18.607576 -6.3449597 255 0 0
-22.170376 18.259106 -8.1491737 255 0 0
-21.502943 18.513155 -6.7617612 255 0 0
-21.919352 18.281006 -8.0542994 255 0 0
-21.434834 18.465004 -6.9988933 255 0 0
-21.505199 18.363003 -7.5614619 255 0 0
-24.098167 18.64591 -6.3133788 255 0 0
-24.079149 18.572258 -6.9018168 255 0 0
-24.020716 18.550362 -7.009666 255 0 0
-23.647402 18.716 -6.0783749 255 0 0
-23.242329 18.707201 -6.0439467 255 0 0
-22.972836 18.70038 -6.0552464 255 0 0
-21.464769 18.794308 -6.9835844 255 0 0
-22.724775 18.853029 -8.182786 255 0 0
-22.030613 18.832577 -8.1841621 255 0 0
-21.927977 18.83901 -8.1364717 255 0 0
-21.519217 18.915777 -7.670651 255 0 0
-23.989735 19.217789 -6.4687595 255 0 0
-24.026852 19.122194 -7.0162387 255 0 0
-23.991253 19.104342 -7.1046462 255 0 0
-23.293232 19.274742 -6.1298575 255 0 0
-23.683636 19.009649 -7.5361843 255 0 0
-22.916716 19.264977 -6.1210957 255 0 0
-23.227945 18.92033 -7.9202743 255 0 0
-22.350056 19.230801 -6.2038679 255 0 0
-21.849545 19.16832 -6.4420085 255 0 0
-21.469225 19.041679 -7.0424953 255 0 0
-23.607952 19.270428 -6.1964002 255 0 0
-21.473507 19.26886 -7.0816436 255 0 0
-23.219379 19.476238 -8.0288439 255 0 0
-22.701061 19.407772 -8.3053102 255 0 0
-22.153378 19.380932 -8.367013 255 0 0
-21.475681 19.599243 -7.1437116 255 0 0
-21.820166 19.395378 -8.235568 255 0 0
-21.488211 19.470049 -7.7896681 255 0 0
-23.959484 19.799643 -6.5861526 255 0 0
-24.022093 19.680344 -7.1299052 255 0 0
-23.655184 19.819088 -6.364337 255 0 0
-23.981632 19.654028 -7.2336078 255 0 0
-23.159691 19.82019 -6.2859707 255 0 0
-23.671329 19.563936 -7.6615682 255 0 0
-22.971233 19.814867 -6.2876678 255 0 0
-22.357029 19.779104 -6.3611503 255 0 0
-21.863224 19.715929 -6.5842662 255 0 0
-21.496748 19.905548 -7.2173567 255 0 0
-24.046785 19.992453 -7.231204 255 0 0
-23.007215 20.201311 -6.4055295 255 0 0
-23.658033 20.113699 -7.8289733 255 0 0
-23.207294 20.0338 -8.1527004 255 0 0
-22.380829 20.323488 -6.5499949 255 0 0
-21.88615 20.259161 -6.7869735 255 0 0
-22.696001 19.964188 -8.430068 255 0 0
-21.54406 20.167427 -7.2254806 255 0 0
-22.186317 19.931948 -8.5263319 255 0 0
-21.506823 20.14669 -7.3193951 255 0 0
-21.76758 19.947235 -8.3765888 255 0 0
-21.467339 20.034426 -7.8893857 255 0 0
-24.04188 20.37409 -6.6472836 255 0 0
-23.708054 20.366827 -6.4409628 255 0 0
-24.075584 20.221344 -7.3144813 255 0 0
-24.099096 20.23431 -7.2573695 255 0 0
-23.039265 20.356476 -6.4359694 255 0 0
-22.904301 20.354525 -6.4549603 255 0 0
-24.129803 20.731228 -6.6676092 255 0 0
-22.181002 20.48222 -8.664525 255 0 0
-21.70978 20.503685 -8.488142 255 0 0
-21.482861 20.598013 -7.9811597 255 0 0
-24.077675 20.757748 -7.5738888 255 0 0
-22.950609 20.921667 -6.5012631 255 0 0
-23.643118 20.662432 -7.9834561 255 0 0
-23.188087 20.594208 -8.2648783 255 0 0
-22.390581 20.878735 -6.6952238 255 0 0
-22.660343 20.523178 -8.5512743 255 0 0
-21.904741 20.801647 -7.0074644 255 0 0
-21.749998 20.766665 -7.1796842 255 0 0
-21.5408 20.682196 -7.565124 255 0 0
-24.237003 20.923193 -6.8318114 255 0 0
-24.174585 20.955837 -6.6810908 255 0 0
-24.088509 20.979956 -6.565495 255 0 0
-24.223934 20.819405 -7.2762175 255 0 0
-23.51955 20.966106 -6.3754516 255 0 0
25.891533 -28.324638 10.909235 0 255 0
25.471876 -27.970278 12.556668 0 255 0
25.1387 -27.657656 11.563994 0 255 0
25.899452 -27.66288 10.668313 0 255 0
25.506439 -27.339632 10.709662 0 255 0
25.086418 -27.138063 11.054286 0 255 0
25.884163 -27.223671 10.512402 0 255 0
26.181551 -27.223122 10.502973 0 255 0
25.058592 -26.929283 11.859992 0 255 0
25.265051 -27.164909 10.798039 0 255 0
25.045183 -26.82085 11.854393 0 255 0
25.50005 -26.797764 12.371774 0 255 0
27.282682 -26.932919 11.493119 0 255 0
24.849171 -26.675117 11.218968 0 255 0
25.826767 -26.658369 10.263064 0 255 0
24.761595 -26.393736 11.257956 0 255 0
24.799257 -26.46513 10.897908 0 255 0
24.98126 -26.296078 11.799231 0 255 0
25.348276 -26.240578 12.109316 0 255 0
25.573765 -26.222612 12.204963 0 255 0
25.181555 -26.524761 10.366857 0 255 0
25.94927 -26.511837 10.209744 0 255 0
26.873421 -26.379803 10.873966 0 255 0
26.074211 -26.112074 12.199892 0 255 0
25.738064 -26.197493 10.025538 0 255 0
25.704483 -26.095013 9.9688339 0 255 0
25.805569 -26.098057 9.9882212 0 255 0
26.438259 -26.041567 10.324143 0 255 0
24.650288 -25.810957 11.217776 0 255 0
24.958445 -25.723202 11.70212 0 255 0
24.694653 -25.958973 10.554953 0 255 0
25.384871 -25.683968 11.940455 0 255 0
25.803959 -25.674486 11.994693 0 255 0
25.104866 -26.03108 10.067163 0 255 0
26.047661 -25.682661 11.961782 0 255 0
26.584476 -25.759153 11.66632 0 255 0
26.697477 -25.797029 11.520945 0 255 0
26.770596 -25.935627 10.834146 0 255 0
26.026115 -25.451443 11.841519 0 255 0
26.534294 -25.52952 11.535916 0 255 0
24.611914 -25.424406 10.309687 0 255 0
25.035814 -25.516834 9.7954817 0 255 0
25.593849 -25.546154 9.704915 0 255 0
25.96517 -25.539989 9.8416452 0 255 0
26.429323 -25.471378 10.248713 0 255 0
26.659267 -25.363468 10.784306 0 255 0
24.609598 -25.237299 11.138667 0 255 0
24.552624 -25.379295 10.501405 0 255 0
25.005369 -25.166189 11.58117 0 255 0
25.334648 -25.140467 11.713525 0 255 0
25.999193 -25.153067 11.697647 0 255 0
26.497068 -25.242512 11.377536 0 255 0
24.993202 -25.08831 9.5905704 0 255 0
24.428787 -24.813772 10.454425 0 255 0
24.523651 -24.908754 10.059984 0 255 0
24.850586 -24.977165 9.6217899 0 255 0
24.980202 -24.983971 9.5457773 0 255 0
25.366547 -25.001335 9.4928932 0 255 0
25.610781 -25.003435 9.5572557 0 255 0
26.4424 -24.712313 11.182107 0 255 0
25.92535 -24.973497 9.7360449 0 255 0
26.5618 -24.801191 10.716534 0 255 0
26.35511 -24.897614 10.183198 0 255 0
24.567118 -24.673769 11.052992 0 255 0
25.103722 -24.611509 11.458266 0 255 0
25.266558 -24.599142 11.50506 0 255 0
25.976274 -24.610577 11.496648 0 255 0
24.533134 -24.356695 11.009408 0 255 0
25.841286 -24.540358 9.6838923 0 255 0
24.472857 -24.452236 9.7167311 0 255 0
24.275057 -24.193621 10.478611 0 255 0
24.426819 -24.366499 9.7278328 0 255 0
25.233164 -24.055672 11.346013 0 255 0
24.46611 -24.374805 9.6616516 0 255 0
24.91703 -24.43362 9.3368025 0 255 0
25.97263 -24.079895 11.343191 0 255 0
25.352205 -24.454771 9.3763466 0 255 0
26.379753 -24.179737 11.053763 0 255 0
25.813131 -24.387825 9.6754951 0 255 0
25.885647 -24.375238 9.743165 0 255 0
26.233517 -24.32019 10.141149 0 255 0
26.454927 -24.247005 10.642342 0 255 0
24.273266 -24.18034 10.472917 0 255 0
24.505852 -24.102608 10.964335 0 255 0
24.651772 -24.083773 11.097946 0 255 0
24.889269 -23.886112 9.2133322 0 255 0
25.282024 -23.890293 9.3226871 0 255 0
26.318283 -23.6492 10.763236 0 255 0
26.104763 -23.799519 10.111586 0 255 0
24.163284 -23.631527 10.422649 0 255 0
24.098995 -23.705498 10.078492 0 255 0
24.49645 -23.543566 10.86937 0 255 0
24.659349 -23.526434 10.98558 0 255 0
24.152365 -23.766592 9.7779255 0 255 0
24.415401 -23.838642 9.3942251 0 255 0
25.292381 -23.508097 11.21973 0 255 0
25.956011 -23.538601 11.179942 0 255 0
25.659328 -23.795855 9.6293955 0 255 0
26.292654 -23.557234 10.606777 0 255 0
26.088223 -23.730238 10.108027 0 255 0
26.13077 -23.722906 10.167949 0 255 0
24.012909 -23.453424 9.806572 0 255 0
24.521505 -23.281511 10.842918 0 255 0
25.304441 -23.259279 11.166844 0 255 0
24.052422 -23.089809 10.385259 0 255 0
24.332663 -23.047148 10.677968 0 255 0
23.948355 -23.210699 9.604435 0 255 0
24.40324 -23.293785 9.2213612 0 255 0
24.922874 -23.315208 9.1943264 0 255 0
25.92462 -23.003344 11.01041 0 255 0
25.118832 -23.307051 9.2725267 0 255 0
25.518044 -23.215761 9.572011 0 255 0
26.180441 -23.093391 10.569779 0 255 0
25.973787 -23.148724 10.066239 0 255 0
23.856039 -23.133015 9.8621645 0 255 0
24.533602 -22.995556 10.820439 0 255 0
25.248524 -22.946203 11.097651 0 255 0
25.340214 -22.945482 11.108766 0 255 0
25.055773 -23.099346 9.2415199 0 255 0
24.511703 -22.779583 10.803494 0 255 0
23.64373 -22.716825 9.9218683 0 255 0
23.879448 -22.528454 10.402346 0 255 0
23.850639 -22.707457 9.2946692 0 255 0
25.268196 -22.381535 11.00631 0 255 0
24.397804 -22.745228 9.0592337 0 255 0
25.371946 -22.385618 10.999604 0 255 0
25.014191 -22.735125 9.1887703 0 255 0
25.856997 -22.482149 10.828623 0 255 0
25.322079 -22.689144 9.3990078 0 255 0
25.473818 -22.658039 9.5334158 0 255 0
26.032858 -22.54763 10.48698 0 255 0
25.882584 -22.59341 10.012219 0 255 0
23.519028 -22.445133 9.9506378 0 255 0
23.708019 -22.494991 10.240679 0 255 0
23.53532 -22.538918 9.7000179 0 255 0
24.349367 -22.403831 10.7468 0 255 0
24.73414 -22.380293 10.917013 0 255 0
23.744888 -22.189306 10.402938 0 255 0
25.374155 -22.109501 10.927073 0 255 0
25.006554 -22.176704 9.070365 0 255 0
25.782986 -21.994305 10.523953 0 255 0
25.749344 -22.049854 9.954196 0 255 0
23.62999 -21.893221 10.393489 0 255 0
23.768724 -21.92149 10.504135 0 255 0
23.414812 -22.039322 9.4057856 0 255 0
24.132111 -21.81476 10.746931 0 255 0
23.801733 -22.176622 9.0384846 0 255 0
24.799082 -21.802593 10.928603 0 255 0
24.377121 -22.20669 8.8588524 0 255 0
25.378571 -21.820726 10.825406 0 255 0
25.770889 -21.948971 10.490181 0 255 0
25.322113 -22.122425 9.3467407 0 255 0
25.442099 -22.094418 9.4807577 0 255 0
23.333498 -21.887045 9.9338455 0 255 0
24.334133 -22.004993 8.7699213 0 255 0
25.409914 -21.816912 9.4560213 0 255 0
24.068224 -21.536373 10.773235 0 255 0
23.782873 -21.885645 8.9120541 0 255 0
25.58663 -21.541628 9.9551258 0 255 0
23.51647 -21.587013 9.0096292 0 255 0
23.763124 -21.641281 8.8046713 0 255 0
24.260677 -21.645695 8.5948534 0 255 0
24.627443 -21.649971 8.6517467 0 255 0
25.025311 -21.616749 8.9553165 0 255 0
25.550421 -21.451408 9.9560137 0 255 0
25.354935 -21.51939 9.4363346 0 255 0
23.459679 -21.328259 10.388285 0 255 0
23.213196 -21.389269 9.8548937 0 255 0
23.925604 -21.232952 10.765382 0 255 0
23.344057 -21.51969 9.2269583 0 255 0
24.263815 -21.19611 10.884683 0 255 0
24.818344 -21.233829 10.876451 0 255 0
25.339958 -21.292347 10.585891 0 255 0
23.305069 -21.135231 9.0768995 0 255 0
23.309464 -20.844555 10.361801 0 255 0
23.30411 -20.980854 8.9830952 0 255 0
23.705278 -21.122597 8.5549183 0 255 0
24.208153 -21.133297 8.3048897 0 255 0
25.213253 -20.803364 10.359853 0 255 0
25.293352 -20.887293 9.951931 0 255 0
24.707848 -21.11977 8.4693117 0 255 0
24.993124 -21.045845 8.8779879 0 255 0
23.266541 -20.703997 10.348046 0 255 0
23.088432 -20.847277 9.7803555 0 255 0
23.103334 -20.802364 9.9254141 0 255 0
23.469803 -20.675163 10.584599 0 255 0
23.689987 -20.637241 10.74322 0 255 0
23.179562 -20.910887 9.2108297 0 255 0
24.294765 -20.632719 10.895368 0 255 0
24.84156 -20.673325 10.745469 0 255 0
25.17124 -20.885029 9.4542542 0 255 0
23.048666 -20.648952 9.7865477 0 255 0
25.08684 -20.469196 9.991416 0 255 0
25.044754 -20.573292 9.4867287 0 255 0
23.627274 -20.60479 8.2736397 0 255 0
24.121212 -20.693148 8.044796 0 255 0
24.720741 -20.578682 8.3047075 0 255 0
22.977419 -20.288212 9.5818357 0 255 0
23.256996 -20.444481 8.7364559 0 255 0
24.785982 -20.153372 10.536254 0 255 0
23.836397 -20.594799 8.0912771 0 255 0
24.985815 -20.274349 10.007715 0 255 0
24.099266 -20.600706 7.9950795 0 255 0
24.190493 -20.609108 7.993135 0 255 0
24.911537 -20.293011 9.4992266 0 255 0
24.898342 -20.353142 9.2696409 0 255 0
24.882708 -20.482254 8.8380861 0 255 0
23.137774 -20.118553 10.292528 0 255 0
22.977148 -20.244253 9.7596445 0 255 0
23.614914 -20.070736 10.715505 0 255 0
23.057961 -20.337461 9.1626129 0 255 0
24.283133 -20.066761 10.799327 0 255 0
23.581509 -20.205288 8.0578737 0 255 0
23.50996 -20.037609 8.0362892 0 255 0
23.566698 -20.033171 7.9739828 0 255 0
24.043678 -20.07621 7.7761006 0 255 0
24.687874 -19.874937 8.9032412 0 255 0
24.277609 -20.080833 7.8177848 0 255 0
24.705673 -19.913485 8.8119268 0 255 0
24.673798 -20.027605 8.2300386 0 255 0
22.899807 -19.668404 9.7010508 0 255 0
22.915997 -19.756704 9.336421 0 255 0
23.614449 -19.507147 10.61077 0 255 0
23.010452 -19.830793 8.97855 0 255 0
23.185329 -19.921604 8.5394754 0 255 0
24.271835 -19.549223 10.594067 0 255 0
24.669342 -19.658052 10.072036 0 255 0
24.648001 -19.660145 10.207723 0 255 0
24.646511 -19.671337 9.5785055 0 255 0
24.66143 -19.784317 8.8289175 0 255 0
23.085915 -19.565245 10.225659 0 255 0
23.683336 -19.502214 10.629395 0 255 0
24.62821 -19.572916 10.07282 0 255 0
24.600491 -19.528797 9.6033688 0 255 0
23.119102 -19.397362 8.1827202 0 255 0
23.511557 -19.479927 7.7446342 0 255 0
24.080816 -19.528337 7.7068243 0 255 0
24.179245 -19.516171 7.752358 0 255 0
24.547533 -19.374048 8.4422541 0 255 0
24.513748 -19.432482 8.191144 0 255 0
22.815315 -19.096634 9.6421967 0 255 0
23.066238 -19.003603 10.134375 0 255 0
22.833443 -19.243534 8.9800558 0 255 0
23.631363 -18.964272 10.438188 0 255 0
23.712761 -18.965933 10.446969 0 255 0
24.196529 -19.03904 10.335247 0 255 0
24.408251 -19.077293 10.070792 0 255 0
24.495857 -19.110611 9.5526686 0 255 0
24.499554 -19.154285 9.2145805 0 255 0
24.517996 -19.247046 8.8732748 0 255 0
24.139914 -19.360277 7.7525015 0 255 0
24.452053 -19.251892 8.1874523 0 255 0
24.169151 -18.749743 10.185101 0 255 0
22.716194 -18.758879 8.3502569 0 255 0
22.995171 -18.878393 7.8051205 0 255 0
23.46719 -18.932079 7.5650001 0 255 0
24.439346 -18.613598 9.3067513 0 255 0
24.430946 -18.594631 9.4088078 0 255 0
23.958401 -18.925285 7.7381763 0 255 0
24.431625 -18.769016 8.7326441 0 255 0
24.296486 -18.837139 8.1925592 0 255 0
22.700874 -18.543432 9.60709 0 255 0
23.04567 -18.440514 10.052369 0 255 0
22.578695 -18.601261 9.0486383 0 255 0
23.58699 -18.413502 10.251309 0 255 0
22.693884 -18.736763 8.4011431 0 255 0
24.147158 -18.467287 10.055929 0 255 0
22.564568 -18.480919 8.2830219 0 255 0
23.389099 -18.61096 7.4565539 0 255 0
22.609238 -18.179197 9.5933132 0 255 0
22.909103 -18.518833 7.5345235 0 255 0
22.405672 -18.175943 9.0371723 0 255 0
22.49103 -18.288868 8.048069 0 255 0
22.779869 -18.372997 7.5286274 0 255 0
23.760305 -18.422226 7.6865344 0 255 0
24.258596 -18.239994 8.6982002 0 255 0
22.350246 -18.035654 9.0411263 0 255 0
22.327652 -18.073545 8.804903 0 255 0
22.40411 -18.224209 8.3390589 0 255 0
22.877275 -18.370634 7.4335628 0 255 0
24.081289 -17.950069 9.8421717 0 255 0
23.274309 -18.352848 7.3335376 0 255 0
23.410316 -18.383907 7.393929 0 255 0
24.314095 -18.106953 9.1938286 0 255 0
24.308815 -18.085825 9.2837753 0 255 0
23.736166 -18.326847 7.6816273 0 255 0
23.970949 -18.230276 8.1316271 0 255 0
24.010845 -18.209316 8.2269869 0 255 0
22.530548 -17.935783 9.577116 0 255 0
22.884207 -17.877247 9.9455767 0 255 0
22.982201 -17.872381 10.002661 0 255 0
23.57933 -17.857594 10.103874 0 255 0
24.162971 -18.01564 8.7479105 0 255 0
23.386581 -18.161894 7.3248906 0 255 0
22.920067 -17.608887 9.991909 0 255 0
22.42054 -18.021751 7.7104144 0 255 0
22.127441 -17.728891 8.4258509 0 255 0
22.81805 -17.855858 7.152287 0 255 0
23.37314 -17.836676 7.2492361 0 255 0
23.616837 -17.740986 7.6676779 0 255 0
22.328939 -17.352001 9.5757904 0 255 0
22.125381 -17.472548 9.0435047 0 255 0
22.060387 -17.588694 8.4357138 0 255 0
22.826202 -17.294008 9.9926319 0 255 0
22.068722 -17.619984 8.267684 0 255 0
22.946539 -17.29586 10.032634 0 255 0
22.114416 -17.626881 7.8799076 0 255 0
22.353745 -17.75729 7.5048871 0 255 0
23.607002 -17.311016 9.961484 0 255 0
23.952602 -17.390217 9.4022923 0 255 0
23.966118 -17.437933 9.5115709 0 255 0
23.886339 -17.473309 8.8635731 0 255 0
23.728796 -17.594128 8.2842093 0 255 0
23.849243 -17.39513 8.878109 0 255 0
22.008011 -17.424152 7.8818545 0 255 0
22.172035 -16.929707 9.5837946 0 255 0
22.256063 -17.271595 7.2318091 0 255 0
23.709816 -16.879705 9.3789539 0 255 0
22.799587 -17.330603 6.9381328 0 255 0
23.537727 -17.188566 7.634017 0 255 0
23.35075 -17.274029 7.1319942 0 255 0
22.111242 -16.77058 9.5852633 0 255 0
22.300634 -16.733727 9.8083553 0 255 0
21.909426 -16.873512 8.9972658 0 255 0
21.921545 -16.876862 9.0471144 0 255 0
22.570923 -16.698406 9.9827271 0 255 0
21.847189 -16.968897 8.4640827 0 255 0
21.893957 -17.099167 7.8176517 0 255 0
23.101397 -16.697784 10.064493 0 255 0
21.924706 -17.109983 7.7029829 0 255 0
23.56044 -16.788921 9.8243484 0 255 0
23.621273 -16.878897 8.9108953 0 255 0
23.531668 -16.985252 8.2880182 0 255 0
22.710907 -16.932476 6.7330341 0 255 0
22.186129 -16.744343 6.9721317 0 255 0
22.498495 -16.778864 6.7251019 0 255 0
23.372601 -16.734825 6.9812589 0 255 0
21.754061 -16.366535 8.7308817 0 255 0
21.748775 -16.442448 8.3548326 0 255 0
21.771938 -16.510183 7.7977872 0 255 0
21.863724 -16.582985 7.4546528 0 255 0
23.48243 -16.257624 9.5386982 0 255 0
23.494375 -16.271473 9.4046068 0 255 0
23.428093 -16.357323 8.8482132 0 255 0
23.393515 -16.474394 8.2409859 0 255 0
22.656281 -16.743511 6.6338797 0 255 0
23.414385 -16.520298 8.0960474 0 255 0
23.038216 -16.745243 6.648715 0 255 0
23.486294 -16.635946 7.5432653 0 255 0
21.880102 -16.143894 9.560523 0 255 0
21.755699 -16.273418 9.0291071 0 255 0
22.443554 -16.124676 9.9883318 0 255 0
22.478893 -16.125067 9.9987698 0 255 0
23.121513 -16.144192 9.9735203 0 255 0
23.458168 -16.164759 9.4074469 0 255 0
22.452515 -16.039265 9.9908314 0 255 0
23.355734 -16.087894 8.8949356 0 255 0
21.775057 -15.760838 9.5506144 0 255 0
22.136349 -16.197838 6.732059 0 255 0
22.15555 -16.201565 6.708179 0 255 0
23.338333 -16.045696 7.5250401 0 255 0
23.10968 -16.240034 6.4747214 0 255 0
23.354713 -16.162748 6.8919606 0 255 0
21.672476 -15.836288 8.4449453 0 255 0
21.688824 -15.91633 7.77667 0 255 0
21.836285 -16.041513 7.2017651 0 255 0
23.067293 -15.621757 9.7802076 0 255 0
23.290518 -15.692078 9.3881292 0 255 0
22.128719 -16.114269 6.6968389 0 255 0
23.198879 -15.803375 8.5066671 0 255 0
23.198626 -15.872726 8.2504444 0 255 0
22.576504 -16.215544 6.3722897 0 255 0
23.301382 -16.010305 7.6933599 0 255 0
21.653221 -15.625805 9.3264198 0 255 0
21.737953 -15.58588 9.5432491 0 255 0
21.845425 -15.560854 9.6840811 0 255 0
21.627846 -15.700789 8.9887199 0 255 0
22.300468 -15.541231 9.9200153 0 255 0
22.520515 -15.542179 9.9398642 0 255 0
23.251608 -15.700718 8.9178743 0 255 0
23.27532 -15.888742 7.5449543 0 255 0
21.649094 -15.656345 8.281539 0 255 0
21.765535 -15.51333 7.0193439 0 255 0
21.983406 -15.635159 6.6538672 0 255 0
22.094597 -15.659554 6.484663 0 255 0
23.057358 -15.420597 8.2356663 0 255 0
22.541016 -15.703435 6.1258054 0 255 0
23.163204 -15.510627 7.1533504 0 255 0
23.206299 -15.58686 6.8660221 0 255 0
23.070274 -15.697005 6.3420024 0 255 0
21.541555 -15.131556 8.9266396 0 255 0
21.542084 -15.10976 9.0078783 0 255 0
21.581142 -15.292826 8.2501993 0 255 0
22.465012 -14.979868 9.8009872 0 255 0
22.526714 -14.985834 9.7887278 0 255 0
21.564047 -15.366874 7.6851277 0 255 0
22.996895 -15.085889 9.4979143 0 255 0
23.059395 -15.10611 9.3878546 0 255 0
23.11116 -15.18796 8.8117085 0 255 0
23.016567 -15.315368 8.1187973 0 255 0
23.02294 -15.292632 8.2320194 0 255 0
23.067919 -15.420142 7.5837989 0 255 0
21.661947 -15.019585 9.4752817 0 255 0
21.885778 -14.988042 9.7032461 0 255 0
21.519791 -15.227277 7.6846499 0 255 0
22.986105 -14.969234 9.4217768 0 255 0
22.520437 -14.881744 9.7552853 0 255 0
21.704611 -15.170323 6.8631048 0 255 0
22.502443 -15.324013 5.943491 0 255 0
23.074886 -15.217653 6.8840976 0 255 0
22.025509 -15.143265 6.17419 0 255 0
22.642403 -15.181485 5.9034534 0 255 0
22.98575 -15.128098 6.2519093 0 255 0
21.41708 -14.718862 8.2313623 0 255 0
21.345858 -14.809933 7.6545157 0 255 0
21.543743 -14.933571 6.9598279 0 255 0
21.666103 -15.007111 6.7869663 0 255 0
22.983694 -14.654154 8.7171774 0 255 0
22.844864 -14.831692 7.5994205 0 255 0
22.176943 -15.1519 5.9956965 0 255 0
22.457235 -15.170292 5.8778939 0 255 0
22.979687 -14.95911 6.899951 0 255 0
23.016613 -15.009505 6.7068143 0 255 0
21.480444 -14.553693 8.9976206 0 255 0
21.623922 -14.453876 9.3711586 0 255 0
21.462404 -14.599868 8.8509512 0 255 0
21.957348 -14.42607 9.6335459 0 255 0
21.378145 -14.847707 7.2828879 0 255 0
22.511406 -14.436749 9.5975571 0 255 0
22.930466 -14.547226 9.16222 0 255 0
22.883017 -14.715939 8.198247 0 255 0
21.975267 -14.848889 5.9657855 0 255 0
21.392685 -14.23938 8.8390961 0 255 0
21.22131 -14.208284 8.2668095 0 255 0
21.243776 -14.499076 7.0135899 0 255 0
21.553167 -14.517061 6.4575505 0 255 0
21.808941 -14.604813 5.9667716 0 255 0
21.921036 -14.595293 5.8008685 0 255 0
22.779354 -14.455756 6.8437414 0 255 0
22.406607 -14.639444 5.699563 0 255 0
22.552467 -14.633236 5.7717795 0 255 0
22.80916 -14.52774 6.2205887 0 255 0
21.007036 -14.188601 7.7316546 0 255 0
21.110201 -14.153121 8.0496454 0 255 0
21.213705 -14.356186 6.8786039 0 255 0
22.832626 -14.054151 8.7159901 0 255 0
22.827822 -14.031023 8.8382158 0 255 0
22.73638 -14.141907 8.1603718 0 255 0
22.646816 -14.249959 7.5784965 0 255 0
22.67296 -14.332206 7.3369374 0 255 0
22.516684 -14.528545 5.7486796 0 255 0
21.336807 -13.998108 8.8286428 0 255 0
21.604721 -13.895818 9.3152857 0 255 0
21.175713 -14.100028 8.273037 0 255 0
21.948818 -13.866591 9.5154295 0 255 0
21.015881 -14.252701 7.1654515 0 255 0
22.495211 -13.901432 9.4089899 0 255 0
22.799999 -13.924946 8.7202902 0 255 0
20.865694 -14.039487 7.2151432 0 255 0
21.418234 -14.063689 6.0487857 0 255 0
22.47986 -13.937649 6.9079885 0 255 0
21.078878 -13.86882 6.5709019 0 255 0
21.407919 -14.03104 6.0115619 0 255 0
21.392752 -14.027308 6.0548992 0 255 0
22.614346 -13.684425 8.1474581 0 255 0
21.688271 -14.04118 5.4927974 0 255 0
21.782141 -14.0432 5.4409699 0 255 0
22.442934 -13.858077 6.6267385 0 255 0
21.9543 -14.058186 5.4227724 0 255 0
22.485092 -13.911155 6.2932487 0 255 0
22.387026 -14.049097 5.7079034 0 255 0
20.702169 -13.587766 7.7811809 0 255 0
20.956228 -13.538233 8.2864819 0 255 0
21.195101 -13.412682 8.7989435 0 255 0
20.646622 -13.660918 7.2218862 0 255 0
20.738989 -13.724097 7.0116796 0 255 0
22.482159 -13.355515 9.2364168 0 255 0
22.693153 -13.470013 8.6910143 0 255 0
22.403183 -13.65571 7.5923285 0 255 0
22.465124 -13.608566 7.8229938 0 255 0
22.391384 -13.795557 6.9623876 0 255 0
21.538555 -13.326581 9.2531862 0 255 0
21.933615 -13.303623 9.426198 0 255 0
22.363852 -13.562415 7.5999823 0 255 0
22.380505 -13.732732 6.3275032 0 255 0
21.289476 -13.618962 5.5521965 0 255 0
20.512184 -13.112923 7.7887053 0 255 0
20.597519 -13.238186 6.7788954 0 255 0
20.973537 -13.357273 6.2365355 0 255 0
21.196487 -13.462679 5.5613832 0 255 0
21.250002 -13.457191 5.4020548 0 255 0
22.041286 -13.203873 6.9468493 0 255 0
22.05747 -13.22802 7.035243 0 255 0
22.176653 -13.3262 6.3448057 0 255 0
21.647743 -13.510633 5.1180615 0 255 0
21.936285 -13.549247 5.2143373 0 255 0
22.236666 -13.39137 5.9792352 0 255 0
22.222954 -13.452456 5.6787353 0 255 0
20.475533 -12.991179 7.7905531 0 255 0
20.525692 -13.004574 7.8668294 0 255 0
20.801123 -12.941151 8.2730799 0 255 0
20.368994 -13.09486 7.230196 0 255 0
20.355206 -13.069089 7.3044896 0 255 0
21.091827 -12.834229 8.7440386 0 255 0
21.466143 -12.755188 9.1984501 0 255 0
21.971207 -12.735458 9.3637123 0 255 0
22.465118 -12.810863 9.101162 0 255 0
22.147484 -13.058384 7.6129336 0 255 0
22.591635 -12.922261 8.6015253 0 255 0
22.420757 -12.991782 8.0979023 0 255 0
20.332796 -13.011467 7.2457266 0 255 0
21.716972 -13.021581 4.9443274 0 255 0
21.913887 -12.999834 5.0901098 0 255 0
20.523977 -12.709557 6.4891324 0 255 0
20.683853 -12.771118 6.2568817 0 255 0
20.845791 -12.850051 5.8485541 0 255 0
20.908123 -12.895537 5.5636477 0 255 0
22.26429 -12.416298 8.0693169 0 255 0
22.479879 -12.344566 8.5612345 0 255 0
21.129 -12.968628 5.0565825 0 255 0
21.879028 -12.711782 6.4813724 0 255 0
21.952217 -12.765071 6.3280292 0 255 0
22.111244 -12.879023 5.688899 0 255 0
22.111654 -12.886428 5.6479597 0 255 0
20.36198 -12.400891 7.7401533 0 255 0
20.179531 -12.451695 7.2915564 0 255 0
20.647182 -12.380837 8.0825548 0 255 0
20.748369 -12.359765 8.2045431 0 255 0
21.05653 -12.268694 8.6906357 0 255 0
20.246243 -12.561422 6.9193592 0 255 0
21.39819 -12.185518 9.1326637 0 255 0
22.015488 -12.175002 9.2843161 0 255 0
22.431505 -12.270918 8.9422131 0 255 0
21.808767 -12.50099 7.3388553 0 255 0
21.938732 -12.454238 7.6188498 0 255 0
21.763344 -12.565187 7.0832295 0 255 0
21.83333 -12.492621 6.3616519 0 255 0
20.481827 -12.423723 6.3232436 0 255 0
20.727486 -12.561144 5.5532603 0 255 0
21.061758 -12.676988 4.8436432 0 255 0
22.048157 -12.587272 5.6062937 0 255 0
20.579544 -12.313293 5.6043301 0 255 0
20.638714 -12.377724 5.2888889 0 255 0
20.735897 -12.401348 4.9625149 0 255 0
21.418921 -12.484691 4.6426296 0 255 0
21.975283 -12.333912 5.5889926 0 255 0
21.724976 -12.464932 4.8080802 0 255 0
21.982256 -12.36373 5.4044394 0 255 0
21.88529 -12.426492 5.0219011 0 255 0
20.158138 -12.030123 6.8346896 0 255 0
21.346279 -11.706985 9.0276804 0 255 0
20.337013 -12.135441 6.3675461 0 255 0
20.435623 -12.187984 6.1411915 0 255 0
22.015871 -11.647377 9.1372156 0 255 0
21.630117 -12.006376 7.0386648 0 255 0
21.816677 -11.897107 7.5700107 0 255 0
22.13555 -11.834969 8.0393362 0 255 0
22.343338 -11.767662 8.5579767 0 255 0
21.678246 -12.118652 6.4102397 0 255 0
20.995001 -12.428741 4.676856 0 255 0
21.779528 -12.194222 6.1725392 0 255 0
20.363302 -11.85952 7.6357145 0 255 0
20.132504 -11.945642 7.1424413 0 255 0
20.582211 -11.837009 7.8641882 0 255 0
20.783239 -11.793999 8.1007929 0 255 0
21.043549 -11.698899 8.5867538 0 255 0
21.083422 -11.684994 8.6628504 0 255 0
21.361715 -11.628951 9.0218172 0 255 0
21.859804 -12.28113 5.006474 0 255 0
20.554388 -12.169793 4.9935331 0 255 0
21.041744 -11.492059 8.5372648 0 255 0
21.201187 -11.352234 8.765131 0 255 0
20.300209 -11.84895 5.713161 0 255 0
21.578234 -11.663358 6.9797306 0 255 0
21.379753 -11.176587 8.8724222 0 255 0
20.287085 -11.79245 5.0702186 0 255 0
20.457577 -11.87767 4.7253251 0 255 0
20.903572 -11.922832 4.3906589 0 255 0
21.640295 -11.699531 5.6978068 0 255 0
21.450197 -11.93524 4.5251346 0 255 0
21.716763 -11.810986 5.0033712 0 255 0
20.058712 -11.407844 7.0540214 0 255 0
20.336916 -11.294918 7.5439749 0 255 0
20.531176 -11.303703 7.7275691 0 255 0
20.067669 -11.513936 6.6143284 0 255 0
20.785927 -11.236565 8.0214586 0 255 0
21.033651 -11.143284 8.4438953 0 255 0
21.050224 -11.139216 8.4699497 0 255 0
20.105455 -11.547836 6.3842139 0 255 0
21.351986 -11.101059 8.8181086 0 255 0
21.400764 -11.098991 8.8507795 0 255 0
20.186239 -11.644885 5.7560978 0 255 0
20.208691 -11.701023 5.3900619 0 255 0
21.941902 -11.122047 8.8651695 0 255 0
22.13615 -11.14854 8.5658541 0 255 0
21.767036 -11.34952 7.485929 0 255 0
22.050173 -11.243282 7.9914036 0 255 0
21.50964 -11.492415 6.7716045 0 255 0
21.550966 -11.459221 6.9582992 0 255 0
21.477505 -11.554588 6.3798585 0 255 0
21.612774 -11.650257 5.6763387 0 255 0
20.007111 -11.333485 6.3893185 0 255 0
20.098471 -11.488232 5.1387801 0 255 0
21.347857 -11.244344 6.3768148 0 255 0
21.869722 -10.782569 8.6280184 0 255 0
20.364311 -11.384841 4.3877597 0 255 0
21.314739 -11.366155 4.4880209 0 255 0
19.873207 -10.887458 7.0680151 0 255 0
19.794338 -10.958378 6.4386897 0 255 0
20.728725 -10.796324 7.9953299 0 255 0
19.856497 -11.048605 5.9774542 0 255 0
19.862133 -11.063974 5.7947211 0 255 0
19.929922 -11.182467 5.1459751 0 255 0
19.993225 -11.244608 4.9424267 0 255 0
21.228054 -10.98121 6.3897133 0 255 0
21.192144 -11.071227 5.7936535 0 255 0
21.17975 -11.054554 5.9264007 0 255 0
20.879778 -11.392334 4.2100911 0 255 0
21.381954 -11.216855 5.0747943 0 255 0
21.396017 -11.235607 5.051909 0 255 0
19.822247 -10.766632 7.0704741 0 255 0
19.798447 -10.812847 6.9754186 0 255 0
20.150911 -10.700939 7.4912548 0 255 0
20.19566 -10.726101 7.5245624 0 255 0
20.70862 -10.673024 7.994205 0 255 0
21.065004 -10.570894 8.402029 0 255 0
19.799089 -10.959579 5.7956867 0 255 0
21.154964 -10.560032 8.4780998 0 255 0
21.827593 -10.585517 8.4963598 0 255 0
21.454409 -10.87183 6.908782 0 255 0
21.749147 -10.784367 7.3977141 0 255 0
21.969698 -10.684203 7.9290915 0 255 0
21.147446 -11.00948 5.8066893 0 255 0
20.138414 -10.593124 7.5011435 0 255 0
20.329769 -11.138555 4.234374 0 255 0
19.562807 -10.597191 6.5156012 0 255 0
21.147537 -10.938445 4.4788957 0 255 0
19.830063 -10.766327 4.4727712 0 255 0
19.897493 -10.791943 4.3735018 0 255 0
20.267464 -10.830822 4.0401931 0 255 0
20.779991 -10.834916 4.0593424 0 255 0
19.437477 -10.440004 5.9081945 0 255 0
19.561577 -10.552414 5.2140875 0 255 0
20.786703 -10.458546 5.8866911 0 255 0
21.336828 -10.290638 6.8584461 0 255 0
21.887438 -10.118712 7.8689518 0 255 0
21.701296 -10.227039 7.3112025 0 255 0
20.908825 -10.572112 5.2305617 0 255 0
20.940756 -10.605659 5.1907291 0 255 0
21.072441 -10.743921 4.4866204 0 255 0
19.638037 -10.188207 7.0283298 0 255 0
19.406359 -10.305141 6.5516315 0 255 0
20.070908 -10.151117 7.4539266 0 255 0
19.35569 -10.330709 5.9405475 0 255 0
19.4014 -10.399243 6.0525923 0 255 0
20.589714 -10.092447 7.9593539 0 255 0
20.972439 -10.011537 8.3220329 0 255 0
21.248039 -9.9941483 8.4399042 0 255 0
21.77018 -10.05029 8.235878 0 255 0
20.967667 -10.328568 6.4080234 0 255 0
20.092836 -10.008839 7.4511542 0 255 0
20.67942 -10.245083 5.9055233 0 255 0
19.219997 -10.045357 5.233479 0 255 0
19.360714 -10.159645 4.6116166 0 255 0
19.667801 -10.276904 4.0031819 0 255 0
20.195198 -10.348385 3.6879351 0 255 0
20.757479 -10.103273 4.7263813 0 255 0
20.843567 -10.172679 4.5022182 0 255 0
20.762497 -10.286793 3.9203763 0 255 0
19.002092 -9.8264618 6.0196857 0 255 0
19.690796 -9.6623106 6.9285235 0 255 0
19.128586 -9.961422 5.4988327 0 255 0
19.906073 -9.6329775 7.1034284 0 255 0
20.174248 -9.583931 7.4046545 0 255 0
20.510595 -9.5131006 7.9101748 0 255 0
19.31691 -10.097969 4.624208 0 255 0
19.339611 -10.103177 4.5195379 0 255 0
21.289181 -9.4356432 8.3544817 0 255 0
20.524742 -9.8762407 5.9082899 0 255 0
20.811424 -9.7849865 6.382606 0 255 0
21.734285 -9.5100327 8.0270929 0 255 0
20.471542 -9.9554625 5.4721508 0 255 0
21.166842 -9.7228203 6.7224383 0 255 0
20.502249 -9.9791107 5.3142247 0 255 0
21.245617 -9.7179298 6.7926593 0 255 0
21.793993 -9.5512886 7.8017278 0 255 0
21.637808 -9.6660118 7.235445 0 255 0
20.121777 -10.183152 3.5793791 0 255 0
19.182602 -9.6728144 6.5273609 0 255 0
19.05419 -9.8171282 5.3079982 0 255 0
20.840078 -9.4385061 8.2453766 0 255 0
20.416861 -9.8446312 5.3263555 0 255 0
19.786953 -9.4850731 6.9098096 0 255 0
18.848318 -9.5890064 6.056088 0 255 0
19.586203 -9.9295454 3.7322218 0 255 0
20.671923 -9.7918119 4.5366201 0 255 0
21.195099 -9.347043 6.750196 0 255 0
19.16711 -9.6299467 4.1018233 0 255 0
20.694756 -9.2425995 6.3559775 0 255 0
19.47217 -9.7499533 3.7156115 0 255 0
19.557497 -9.7583866 3.6226985 0 255 0
20.286444 -9.4693298 4.9750381 0 255 0
20.502554 -9.5239983 4.6248779 0 255 0
19.985229 -9.7551012 3.3520012 0 255 0
20.642319 -9.5953426 4.4077535 0 255 0
20.425798 -9.7810364 3.4257774 0 255 0
20.732529 -9.725563 3.8264501 0 255 0
18.655281 -9.3363037 5.710393 0 255 0
19.069725 -9.1404152 6.4918818 0 255 0
18.738617 -9.372426 5.407711 0 255 0
19.690193 -9.1425314 6.6857839 0 255 0
18.899416 -9.4635868 4.7460074 0 255 0
19.890678 -9.1181459 6.8225532 0 255 0
20.167959 -9.0550804 7.2913213 0 255 0
20.401485 -8.9543152 7.8330021 0 255 0
20.826254 -8.8655977 8.200304 0 255 0
21.26004 -8.8841877 8.1914682 0 255 0
20.307487 -9.2782354 5.9138122 0 255 0
20.158928 -9.3872576 5.3710742 0 255 0
21.639278 -8.9893684 7.738143 0 255 0
21.211691 -9.1419191 6.7674932 0 255 0
21.542587 -9.088129 7.183341 0 255 0
18.567146 -9.1321144 6.1171999 0 255 0
19.105522 -9.0553083 6.4989257 0 255 0
18.525574 -9.0625763 6.1217747 0 255 0
20.337517 -8.7812691 7.7874885 0 255 0
20.255367 -9.1305456 4.6945047 0 255 0
18.460472 -8.9120522 5.3614559 0 255 0
19.051521 -9.1894941 3.8177211 0 255 0
20.151466 -8.8610497 5.9085827 0 255 0
19.947495 -8.8886251 5.394824 0 255 0
19.5126 -9.2188892 3.3506727 0 255 0
21.429934 -8.6747208 7.1668873 0 255 0
19.986496 -9.2480431 3.1963444 0 255 0
20.383287 -9.2466917 3.3152392 0 255 0
20.639091 -9.1534538 3.7698133 0 255 0
18.61058 -8.9270563 4.7272525 0 255 0
19.740326 -8.6008415 6.648242 0 255 0
19.827175 -8.5920897 6.7431998 0 255 0
20.001129 -8.5207405 7.1872396 0 255 0
20.019508 -8.5285225 7.2346058 0 255 0
18.720139 -8.9766903 4.253746 0 255 0
18.836641 -9.0394192 4.0334911 0 255 0
19.912624 -8.789794 5.3925529 0 255 0
20.10408 -8.7177706 5.9057231 0 255 0
20.296631 -8.6718607 6.1608944 0 255 0
19.899969 -8.80828 5.2546821 0 255 0
20.520407 -8.6489458 6.3336253 0 255 0
21.044449 -8.5860472 6.6976199 0 255 0
20.114563 -8.898859 4.7263651 0 255 0
21.371374 -8.5060568 7.1646032 0 255 0
20.248562 -8.9214878 4.5555029 0 255 0
20.579489 -9.064023 4.0962882 0 255 0
18.23362 -8.6580582 5.672358 0 255 0
18.643957 -8.5278454 6.3767452 0 255 0
19.057251 -8.6141777 6.459074 0 255 0
19.151175 -8.613801 6.4679751 0 255 0
20.150595 -8.3382311 7.7338963 0 255 0
19.791857 -8.4976921 6.7384548 0 255 0
20.651806 -8.3049507 8.0767374 0 255 0
21.209778 -8.3493872 7.9217672 0 255 0
18.693209 -8.8657427 4.1346092 0 255 0
18.232742 -8.4459877 6.1231122 0 255 0
18.138296 -8.4589987 5.5730267 0 255 0
20.251068 -8.4112616 6.1704936 0 255 0
20.435905 -8.3854942 6.3161116 0 255 0
20.449806 -8.2717972 6.3377271 0 255 0
20.401978 -8.5894394 4.0567694 0 255 0
20.195913 -8.753746 3.250685 0 255 0
18.959099 -8.6167364 3.4151721 0 255 0
19.461044 -8.6608915 3.1323459 0 255 0
20.161495 -8.6425772 3.2496569 0 255 0
20.410051 -8.5662842 3.6086617 0 255 0
20.448202 -8.5860558 3.7542892 0 255 0
18.037025 -8.186883 5.3192654 0 255 0
18.288231 -8.3428688 4.7350368 0 255 0
19.076763 -8.0634394 6.4373484 0 255 0
19.704824 -7.9225478 7.3041601 0 255 0
19.535707 -8.0019674 6.7694912 0 255 0
18.42767 -8.3905153 4.1770034 0 255 0
18.588747 -8.457633 3.7989664 0 255 0
19.724398 -8.2362309 5.359725 0 255 0
19.971304 -8.1581326 5.8664603 0 255 0
20.366165 -8.0537996 6.2883892 0 255 0
19.748882 -8.301075 4.7823086 0 255 0
20.595764 -8.016242 6.4705958 0 255 0
20.837027 -7.9763422 6.6872778 0 255 0
20.123672 -8.4182739 4.3557577 0 255 0
17.942986 -8.0651169 5.6389132 0 255 0
18.1353 -7.9875669 6.1032391 0 255 0
18.500845 -8.0186872 6.2928696 0 255 0
19.932938 -7.7703667 7.7862186 0 255 0
20.648638 -7.7498879 7.9497967 0 255 0
21.094521 -7.8244972 7.5043063 0 255 0
21.112576 -7.8768082 7.2146254 0 255 0
20.326138 -8.3494387 3.7464354 0 255 0
19.903887 -7.6862388 7.7934804 0 255 0
19.556875 -7.6464376 7.3417668 0 255 0
20.773104 -7.7680387 6.6860485 0 255 0
21.002167 -7.6451492 7.2333331 0 255 0
18.870317 -8.1787996 3.1020141 0 255 0
19.421108 -8.2056007 2.9173667 0 255 0
17.934755 -7.8252358 4.938818 0 255 0
19.29122 -7.5081549 6.8401952 0 255 0
18.473625 -7.9658713 3.5258632 0 255 0
18.703615 -8.0733175 3.2006755 0 255 0
18.854626 -8.1109047 3.0506916 0 255 0
19.387978 -8.1250181 2.869514 0 255 0
19.935223 -7.9677668 4.1036491 0 255 0
19.526205 -8.1186695 2.903692 0 255 0
20.083868 -7.9987311 3.8145828 0 255 0
19.970184 -8.054039 3.2593489 0 255 0
17.847134 -7.6581545 4.9458609 0 255 0
18.486584 -7.4672661 6.2592988 0 255 0
17.889065 -7.683444 4.8357067 0 255 0
18.884295 -7.4687605 6.4053431 0 255 0
19.251884 -7.4181681 6.8461003 0 255 0
18.1626 -7.8396225 4.2243295 0 255 0
18.214355 -7.8650808 4.1001587 0 255 0
20.595709 -7.2139268 7.7005138 0 255 0
19.314369 -7.6781602 4.8760414 0 255 0
19.496429 -7.6185255 5.3811941 0 255 0
19.8591 -7.5894647 5.826673 0 255 0
20.269157 -7.4767685 6.2373219 0 255 0
20.83049 -7.3080416 7.2338328 0 255 0
20.659115 -7.394815 6.6844745 0 255 0
19.568804 -7.8170156 4.3950505 0 255 0
19.916704 -7.8266373 3.8860996 0 255 0
17.754761 -7.5158548 5.6044936 0 255 0
18.058428 -7.4604926 6.0757957 0 255 0
19.364614 -7.258822 7.3221745 0 255 0
19.631985 -7.1648827 7.7164283 0 255 0
20.050278 -7.1661911 7.8701191 0 255 0
19.470505 -7.556253 5.384624 0 255 0
19.249548 -7.5749092 4.882616 0 255 0
18.10078 -7.5884805 4.076097 0 255 0
18.396553 -7.5357881 3.2985618 0 255 0
19.708008 -7.0989814 5.8176875 0 255 0
19.432156 -7.4324989 4.070364 0 255 0
19.793642 -7.5747137 3.295584 0 255 0
17.941738 -7.05726 6.0459986 0 255 0
17.916616 -7.2900338 4.1206603 0 255 0
18.065283 -7.3195205 3.8539939 0 255 0
19.016607 -7.1487527 4.8765135 0 255 0
18.369732 -7.463263 3.2963176 0 255 0
20.495255 -6.7639532 7.3347921 0 255 0
18.701326 -7.5850816 2.6003094 0 255 0
19.408386 -7.3302751 3.9860816 0 255 0
19.150368 -7.5745687 2.3986187 0 255 0
19.739548 -7.449862 3.2978721 0 255 0
19.567736 -7.5736351 2.7579103 0 255 0
19.731813 -7.4757714 3.1643229 0 255 0
17.601406 -7.0014977 5.5668888 0 255 0
17.590515 -7.094882 4.9428148 0 255 0
18.582907 -6.877841 6.345973 0 255 0
17.72867 -7.1955309 4.453711 0 255 0
18.703268 -6.8867669 6.4119792 0 255 0
19.025682 -6.7862649 6.8418155 0 255 0
19.218441 -6.6706872 7.3033695 0 255 0
19.644979 -6.6283331 7.6589026 0 255 0
20.014389 -6.6242547 7.6655979 0 255 0
19.264862 -7.0501342 5.3850188 0 255 0
20.448061 -6.6886992 7.307929 0 255 0
19.07247 -7.1785073 4.3682718 0 255 0
19.943066 -6.8902068 6.0722871 0 255 0
19.104605 -7.1836443 4.3029585 0 255 0
20.092133 -6.8654242 6.2180915 0 255 0
20.443649 -6.8266325 6.6869564 0 255 0
18.664572 -7.4901228 2.4954472 0 255 0
19.280275 -7.4466171 2.3721812 0 255 0
17.852306 -6.8358369 6.0250959 0 255 0
18.068428 -6.8296747 6.1488495 0 255 0
17.695425 -7.0733056 4.2771473 0 255 0
19.05632 -7.1052117 4.3061509 0 255 0
18.605806 -6.6168566 6.4034281 0 255 0
20.040283 -6.7062926 6.2195511 0 255 0
19.965973 -6.3866935 7.5081592 0 255 0
18.143023 -6.9192147 3.2414744 0 255 0
18.249166 -6.9868155 2.9445896 0 255 0
20.234444 -6.3961754 6.7213454 0 255 0
18.296667 -7.0299234 2.5841887 0 255 0
19.257965 -6.8470812 3.7424121 0 255 0
18.443407 -7.1110482 1.9478658 0 255 0
19.511065 -6.9174347 3.2593298 0 255 0
18.942623 -7.1111488 1.8435154 0 255 0
19.502642 -7.0053916 2.6473067 0 255 0
19.289099 -7.084548 2.1889088 0 255 0
19.523006 -7.0796585 2.6740444 0 255 0
17.306374 -6.5808115 4.9325399 0 255 0
17.943375 -6.8197746 3.4959126 0 255 0
19.490749 -6.4051795 5.8014669 0 255 0
18.856447 -6.6484079 4.2694287 0 255 0
18.951534 -6.6858253 4.0945778 0 255 0
17.353313 -6.3725777 5.5888896 0 255 0
17.266277 -6.5977221 4.3866301 0 255 0
18.148657 -6.2492285 6.242826 0 255 0
18.538336 -6.292788 6.4176264 0 255 0
18.621126 -6.2838326 6.4749904 0 255 0
18.931387 -6.1792669 6.8141298 0 255 0
19.23362 -6.1091652 7.1853666 0 255 0
17.537615 -6.66504 3.7998564 0 255 0
18.752441 -6.4371328 4.9096088 0 255 0
19.896492 -6.1461344 7.2986698 0 255 0
19.065044 -6.4453979 5.3817816 0 255 0
