# .PCD v0.7 - Point Cloud Data file format
VERSION 0.7
FIELDS x y z rgb
SIZE 4 4 4 4
TYPE F F F F
COUNT 1 1 1 1
WIDTH 1055
HEIGHT 1
VIEWPOINT 0 0 0 1 0 0 0
POINTS 1055
DATA ascii
11.586121 -10.512711 -12.614287 9.1476764e-41
7.8884811 -10.559464 -14.566903 9.1476764e-41
8.7848959 -10.675808 -15.279705 9.1476764e-41
8.2124701 -10.386759 -13.90799 9.1476764e-41
8.1571512 -10.629447 -15.13832 9.1476764e-41
9.1120205 -10.58234 -15.076449 9.1476764e-41
8.8112631 -10.274715 -13.482037 9.1476764e-41
9.085619 -10.199682 -13.267246 9.1476764e-41
9.2861853 -10.124988 -13.054602 9.1476764e-41
9.5038242 -10.445755 -14.577627 9.1476764e-41
9.913949 -10.311159 -14.097976 9.1476764e-41
10.45997 -10.20609 -13.671332 9.1476764e-41
9.6404476 -9.9956875 -12.531068 9.1476764e-41
9.9209681 -9.8745909 -11.956397 9.1476764e-41
8.9734077 -10.337441 -15.089652 9.1476764e-41
10.95463 -10.089336 -13.176307 9.1476764e-41
8.0787897 -10.085663 -13.917753 9.1476764e-41
9.8306465 -9.7456264 -11.960148 9.1476764e-41
10.239452 -9.7107048 -11.438231 9.1476764e-41
10.936457 -9.6220179 -11.194302 9.1476764e-41
11.396204 -9.7021208 -11.64257 9.1476764e-41
11.420965 -9.7560635 -11.92974 9.1476764e-41
11.245423 -9.909976 -12.623866 9.1476764e-41
7.7302737 -10.078026 -14.530111 9.1476764e-41
9.1815815 -9.8778439 -13.046914 9.1476764e-41
9.5107994 -9.7684355 -12.521159 9.1476764e-41
10.899804 -9.5793152 -11.180111 9.1476764e-41
10.942285 -9.5773888 -11.187243 9.1476764e-41
11.289995 -9.6267328 -11.412531 9.1476764e-41
11.391448 -9.6564026 -11.946174 9.1476764e-41
10.095054 -9.4643555 -11.422685 9.1476764e-41
9.3227015 -10.019243 -14.6463 9.1476764e-41
7.6288805 -9.8339958 -14.438656 9.1476764e-41
7.6849642 -9.9237175 -14.702167 9.1476764e-41
8.2014809 -9.9882774 -15.180526 9.1476764e-41
8.7977057 -9.9402189 -15.093105 9.1476764e-41
7.8972702 -9.7184935 -13.919224 9.1476764e-41
8.1183462 -9.708993 -13.761145 9.1476764e-41
8.5412197 -9.6337767 -13.506247 9.1476764e-41
9.0470104 -9.5255976 -13.05968 9.1476764e-41
9.249361 -9.7990627 -14.675172 9.1476764e-41
9.4974051 -9.7243652 -14.384718 9.1476764e-41
9.3234701 -9.3644342 -12.526563 9.1476764e-41
9.704668 -9.6741209 -14.179574 9.1476764e-41
10.290971 -9.5652189 -13.721885 9.1476764e-41
10.404207 -9.5496912 -13.628915 9.1476764e-41
10.767742 -9.4741478 -13.22283 9.1476764e-41
9.5073938 -9.1374016 -11.966978 9.1476764e-41
10.172216 -9.04245 -11.235608 9.1476764e-41
11.02499 -9.2949791 -12.674855 9.1476764e-41
9.8594093 -9.0394621 -11.449863 9.1476764e-41
10.821239 -8.9724054 -11.124058 9.1476764e-41
10.968775 -8.932888 -11.175635 9.1476764e-41
11.28499 -9.0326843 -11.594436 9.1476764e-41
11.25011 -9.1336479 -12.04666 9.1476764e-41
7.6570573 -9.3281822 -14.984765 9.1476764e-41
8.2176447 -9.3533592 -15.210867 9.1476764e-41
7.4232469 -9.2036371 -14.446341 9.1476764e-41
7.6647768 -9.0781364 -13.960128 9.1476764e-41
8.1928186 -9.0162077 -13.621786 9.1476764e-41
8.3275013 -8.9971495 -13.551565 9.1476764e-41
8.6349812 -9.3128815 -15.126611 9.1476764e-41
9.1527843 -9.1854792 -14.751408 9.1476764e-41
8.8471289 -8.8715782 -13.136244 9.1476764e-41
9.1195793 -8.7516842 -12.582194 9.1476764e-41
9.543169 -9.0666714 -14.334001 9.1476764e-41
9.6009178 -9.0502405 -14.274154 9.1476764e-41
10.142534 -8.9453516 -13.777325 9.1476764e-41
10.597371 -8.9218102 -13.289434 9.1476764e-41
9.311141 -8.5929594 -11.973932 9.1476764e-41
10.562491 -8.8105249 -13.3027 9.1476764e-41
9.6385765 -8.428381 -11.451356 9.1476764e-41
10.286022 -8.3500824 -11.118402 9.1476764e-41
10.546761 -8.3341484 -11.10711 9.1476764e-41
10.95537 -8.3120117 -11.263499 9.1476764e-41
11.174622 -8.3877497 -11.599513 9.1476764e-41
10.862226 -8.6367979 -12.753914 9.1476764e-41
11.124886 -8.5056334 -12.153636 9.1476764e-41
10.331684 -8.1630945 -11.100562 9.1476764e-41
7.6522264 -8.4790039 -14.083526 9.1476764e-41
7.4911118 -8.6258698 -14.654745 9.1476764e-41
9.0884943 -8.1337309 -11.975706 9.1476764e-41
7.6697245 -8.6370964 -14.940588 9.1476764e-41
8.1958637 -8.6524134 -15.181319 9.1476764e-41
8.3036308 -8.6741209 -15.19071 9.1476764e-41
8.1593113 -8.3638639 -13.68965 9.1476764e-41
8.2018242 -8.3593864 -13.660968 9.1476764e-41
9.4351711 -7.9703302 -11.441196 9.1476764e-41
7.6943722 -8.4934654 -14.90872 9.1476764e-41
8.6812277 -8.2405481 -13.217399 9.1476764e-41
9.1541071 -8.5660515 -14.86803 9.1476764e-41
9.2324409 -8.5448027 -14.796739 9.1476764e-41
9.5687094 -8.4304228 -14.381755 9.1476764e-41
9.9471369 -8.3116913 -13.841662 9.1476764e-41
8.9820929 -7.9612908 -11.966765 9.1476764e-41
8.8428211 -8.0363464 -12.622541 9.1476764e-41
8.8930626 -8.0662746 -12.457689 9.1476764e-41
8.8714352 -8.0951719 -12.623346 9.1476764e-41
9.1612635 -8.4602013 -14.883657 9.1476764e-41
10.351464 -8.1872463 -13.342769 9.1476764e-41
9.3354712 -7.7995663 -11.436526 9.1476764e-41
9.5556574 -7.7442074 -11.282889 9.1476764e-41
10.703475 -8.0079918 -12.842876 9.1476764e-41
11.032288 -7.8779902 -12.275976 9.1476764e-41
8.1530542 -8.0607023 -13.731541 9.1476764e-41
10.02854 -7.6742182 -11.106886 9.1476764e-41
10.401984 -7.6418271 -11.087412 9.1476764e-41
10.956724 -7.6824703 -11.347754 9.1476764e-41
11.116085 -7.7466149 -11.6484 9.1476764e-41
9.8147621 -7.9643183 -13.892142 9.1476764e-41
8.6691523 -7.5020046 -11.922743 9.1476764e-41
7.7997189 -7.8825588 -14.269576 9.1476764e-41
7.8390536 -7.9565639 -14.75007 9.1476764e-41
8.3610477 -8.0108185 -15.110551 9.1476764e-41
9.0355368 -7.9894466 -15.019039 9.1476764e-41
9.179636 -7.9759946 -14.919889 9.1476764e-41
8.1154699 -7.7198267 -13.804187 9.1476764e-41
8.2251759 -7.6938167 -13.663511 9.1476764e-41
8.4643517 -7.6294274 -13.289966 9.1476764e-41
9.4998407 -7.8173518 -14.474232 9.1476764e-41
8.5133505 -7.4046321 -12.589129 9.1476764e-41
8.5352259 -7.577435 -13.073647 9.1476764e-41
9.5213718 -7.7684045 -14.413549 9.1476764e-41
10.006069 -7.5264583 -13.362989 9.1476764e-41
8.4746847 -7.3234401 -12.347842 9.1476764e-41
8.8843517 -7.1520014 -11.411807 9.1476764e-41
9.6819725 -7.6017361 -13.916484 9.1476764e-41
10.00139 -7.4988947 -13.348504 9.1476764e-41
10.500948 -7.433218 -12.869495 9.1476764e-41
10.897207 -7.2766747 -12.391902 9.1476764e-41
8.4755793 -7.1863489 -11.897604 9.1476764e-41
8.8351603 -7.1016078 -11.419628 9.1476764e-41
8.8964558 -7.1120205 -11.389091 9.1476764e-41
8.365078 -7.3862391 -13.320593 9.1476764e-41
7.947113 -7.5203424 -14.523162 9.1476764e-41
9.6377277 -7.0646787 -11.144185 9.1476764e-41
9.8430347 -7.0421839 -11.110328 9.1476764e-41
10.415474 -7.0056667 -11.109795 9.1476764e-41
10.977294 -7.0526605 -11.449721 9.1476764e-41
11.08697 -7.1254663 -11.792872 9.1476764e-41
9.0504293 -7.4976892 -14.955059 9.1476764e-41
9.3992243 -7.410223 -14.530906 9.1476764e-41
8.0147839 -7.1951108 -14.423732 9.1476764e-41
8.5044193 -7.2692318 -14.950361 9.1476764e-41
8.9847069 -7.3644342 -14.957241 9.1476764e-41
10.224215 -6.9913783 -12.839985 9.1476764e-41
8.2522182 -6.8103662 -12.640009 9.1476764e-41
8.2095299 -6.9473386 -13.303416 9.1476764e-41
8.0520077 -7.0788784 -13.860736 9.1476764e-41
8.4311152 -7.2444482 -14.914783 9.1476764e-41
8.519659 -7.179873 -14.929022 9.1476764e-41
9.3254404 -7.1710567 -14.561382 9.1476764e-41
8.2573938 -6.613595 -11.930684 9.1476764e-41
8.2442789 -6.7836022 -12.526949 9.1476764e-41
9.5753307 -6.8260555 -13.311006 9.1476764e-41
9.4530649 -6.9704585 -13.944202 9.1476764e-41
8.5252981 -6.4471307 -11.460848 9.1476764e-41
9.0111704 -6.4235835 -11.258146 9.1476764e-41
9.6176691 -6.4338403 -11.174756 9.1476764e-41
9.8126736 -6.4148221 -11.156642 9.1476764e-41
9.9680214 -6.6968532 -12.820538 9.1476764e-41
10.503191 -6.6425776 -12.511786 9.1476764e-41
10.641024 -6.6274042 -12.421046 9.1476764e-41
11.012682 -6.5209436 -11.940135 9.1476764e-41
10.436538 -6.352325 -11.164742 9.1476764e-41
9.5082693 -6.6961298 -13.308593 9.1476764e-41
10.954564 -6.3984551 -11.466739 9.1476764e-41
10.579766 -6.5215082 -12.423489 9.1476764e-41
8.1359491 -6.4279385 -12.692813 9.1476764e-41
9.804389 -6.4848599 -12.804591 9.1476764e-41
8.5833473 -6.6384912 -14.819427 9.1476764e-41
9.1846485 -6.6036434 -14.56383 9.1476764e-41
7.9783711 -6.3135309 -13.347372 9.1476764e-41
7.926764 -6.4532771 -13.983176 9.1476764e-41
8.0453072 -6.5289636 -14.409623 9.1476764e-41
8.1478138 -6.0254512 -12.033713 9.1476764e-41
8.0359488 -6.2471642 -13.006547 9.1476764e-41
9.3255062 -6.2820582 -13.690354 9.1476764e-41
9.3184748 -6.3812222 -14.014339 9.1476764e-41
8.4215832 -5.8325586 -11.517769 9.1476764e-41
8.9893179 -5.7909818 -11.29035 9.1476764e-41
9.6758642 -5.7961512 -11.213264 9.1476764e-41
9.5705776 -6.0439692 -12.787646 9.1476764e-41
9.3330145 -6.1710138 -13.335635 9.1476764e-41
10.6359 -5.9388728 -12.270083 9.1476764e-41
10.930834 -5.9015527 -12.043996 9.1476764e-41
7.8871512 -6.0600553 -13.376899 9.1476764e-41
9.6472492 -5.730752 -11.215752 9.1476764e-41
10.478675 -5.6874628 -11.165381 9.1476764e-41
10.007348 -5.9443202 -12.499463 9.1476764e-41
10.215374 -5.9306512 -12.42485 9.1476764e-41
10.990423 -5.7395291 -11.485908 9.1476764e-41
10.485846 -5.6098199 -11.160762 9.1476764e-41
7.7106805 -5.7677178 -13.702091 9.1476764e-41
7.7537003 -5.8267269 -14.073585 9.1476764e-41
8.0734596 -5.9128504 -14.528016 9.1476764e-41
8.6801443 -5.9413419 -14.716979 9.1476764e-41
8.9977837 -5.9652491 -14.591345 9.1476764e-41
9.2352924 -5.8240991 -14.102141 9.1476764e-41
7.8663673 -5.5157008 -12.742632 9.1476764e-41
7.7418227 -5.7025661 -13.414462 9.1476764e-41
9.2567101 -5.6641779 -13.706635 9.1476764e-41
8.130805 -5.2577844 -11.700007 9.1476764e-41
8.2373877 -5.2247462 -11.553185 9.1476764e-41
7.9801383 -5.3816829 -12.104635 9.1476764e-41
8.9420681 -5.1892633 -11.222201 9.1476764e-41
9.2873497 -5.1749721 -11.189011 9.1476764e-41
9.4006891 -5.4507504 -12.825781 9.1476764e-41
9.2534065 -5.569067 -13.434513 9.1476764e-41
9.9779835 -5.3706174 -12.429221 9.1476764e-41
8.2978373 -5.1767697 -11.479262 9.1476764e-41
7.631659 -5.5510859 -14.064898 9.1476764e-41
9.7784586 -5.1020412 -11.130265 9.1476764e-41
8.743784 -5.6479793 -14.620715 9.1476764e-41
10.637803 -5.2883906 -12.252596 9.1476764e-41
11.044581 -5.1324215 -11.53231 9.1476764e-41
10.85929 -5.2655025 -12.131911 9.1476764e-41
10.053545 -5.0295801 -11.08753 9.1476764e-41
10.542334 -5.0050225 -11.111754 9.1476764e-41
11.053072 -5.1022763 -11.540195 9.1476764e-41
7.8553953 -5.0292597 -12.129207 9.1476764e-41
8.9940805 -4.8966851 -11.124446 9.1476764e-41
7.5877981 -4.9433312 -12.784647 9.1476764e-41
7.4055901 -5.0923214 -13.434271 9.1476764e-41
7.4028034 -5.1598687 -14.003091 9.1476764e-41
7.6001968 -5.2274837 -14.280597 9.1476764e-41
8.1164799 -5.256701 -14.539065 9.1476764e-41
9.8908529 -4.7221308 -11.03715 9.1476764e-41
8.2068167 -5.2261562 -14.544375 9.1476764e-41
8.9638481 -5.1645322 -14.188554 9.1476764e-41
8.9902763 -5.1518488 -14.146203 9.1476764e-41
9.1024113 -5.0878811 -13.807774 9.1476764e-41
7.7512183 -4.7524743 -12.145612 9.1476764e-41
7.5118103 -4.7997766 -12.766247 9.1476764e-41
7.6834416 -4.8308039 -12.394485 9.1476764e-41
8.1482563 -5.1668148 -14.527331 9.1476764e-41
9.1366768 -5.0011134 -13.530763 9.1476764e-41
7.9740334 -4.5378108 -11.600427 9.1476764e-41
7.2209892 -4.8018212 -13.37579 9.1476764e-41
8.4566212 -4.4683862 -11.094151 9.1476764e-41
9.2526665 -4.806622 -12.920312 9.1476764e-41
9.6560612 -4.6774502 -12.462442 9.1476764e-41
10.705023 -4.6204767 -12.210962 9.1476764e-41
8.3716288 -4.4201226 -11.125367 9.1476764e-41
9.238534 -4.4032254 -10.913399 9.1476764e-41
9.5444193 -4.3810754 -10.92711 9.1476764e-41
9.9455328 -4.370913 -10.965752 9.1476764e-41
10.601467 -4.367074 -11.10323 9.1476764e-41
10.115474 -4.6266079 -12.337752 9.1476764e-41
10.702343 -4.5968747 -12.212157 9.1476764e-41
11.070995 -4.4558711 -11.607182 9.1476764e-41
11.081152 -4.4887052 -11.739666 9.1476764e-41
9.2985344 -4.2539639 -10.858451 9.1476764e-41
6.9612775 -4.3873959 -13.314406 9.1476764e-41
7.0491762 -4.5372705 -13.97185 9.1476764e-41
7.5317965 -4.6042538 -14.353389 9.1476764e-41
7.6538692 -4.5802851 -14.374902 9.1476764e-41
7.164031 -4.1982937 -12.69958 9.1476764e-41
7.8381543 -4.0249906 -11.602503 9.1476764e-41
8.7347584 -3.9020991 -10.744006 9.1476764e-41
8.448843 -4.4464135 -14.107345 9.1476764e-41
8.4566793 -4.4399195 -14.098182 9.1476764e-41
8.905982 -4.3706841 -13.557445 9.1476764e-41
7.4758101 -4.0567837 -12.175651 9.1476764e-41
8.1392078 -3.8362148 -11.080512 9.1476764e-41
7.5533047 -4.423739 -14.338139 9.1476764e-41
9.119854 -4.1797299 -13.008549 9.1476764e-41
9.4776878 -4.0583062 -12.490128 9.1476764e-41
9.3984613 -3.6738214 -10.740459 9.1476764e-41
10.007376 -3.7161891 -10.934048 9.1476764e-41
10.231453 -3.9208765 -12.290528 9.1476764e-41
10.286005 -3.9901607 -12.287007 9.1476764e-41
10.303461 -3.9207027 -12.282931 9.1476764e-41
10.724829 -3.9626672 -12.18219 9.1476764e-41
11.018726 -3.8164668 -11.64766 9.1476764e-41
11.014031 -3.8839502 -11.872486 9.1476764e-41
6.9874268 -3.8896754 -12.700062 9.1476764e-41
8.4843712 -3.626025 -10.732547 9.1476764e-41
8.8189659 -3.6132441 -10.650678 9.1476764e-41
10.63637 -3.7266262 -11.182429 9.1476764e-41
7.276413 -3.6362085 -12.178653 9.1476764e-41
6.9789867 -3.9125972 -14.046222 9.1476764e-41
7.0232258 -3.9116876 -14.085784 9.1476764e-41
7.1528416 -3.9306972 -14.162154 9.1476764e-41
8.6627665 -3.8262782 -13.571139 9.1476764e-41
6.8474774 -3.6013269 -12.713711 9.1476764e-41
6.6934638 -3.7441859 -13.343501 9.1476764e-41
6.7164845 -3.7000208 -13.125461 9.1476764e-41
7.6356344 -3.4580774 -11.621108 9.1476764e-41
8.6194038 -3.7226648 -13.568714 9.1476764e-41
7.1820784 -3.4605768 -12.175202 9.1476764e-41
6.6679883 -3.5934932 -13.350706 9.1476764e-41
7.2895422 -3.4356012 -12.041155 9.1476764e-41
7.9644799 -3.2991877 -11.024773 9.1476764e-41
7.8391914 -3.761831 -14.082137 9.1476764e-41
8.7125282 -3.6922204 -13.464471 9.1476764e-41
8.9727612 -3.5801966 -13.058099 9.1476764e-41
9.3162775 -3.4314325 -12.552534 9.1476764e-41
10.720949 -3.3146358 -12.128559 9.1476764e-41
7.4482803 -3.1570215 -11.637601 9.1476764e-41
7.7685828 -3.02633 -11.085738 9.1476764e-41
8.8472633 -2.9730372 -10.621205 9.1476764e-41
9.3913555 -3.0613489 -10.784923 9.1476764e-41
8.903471 -3.3682153 -13.061705 9.1476764e-41
9.2675314 -3.2896571 -12.571453 9.1476764e-41
10.037798 -3.070199 -11.023159 9.1476764e-41
9.97752 -3.2780788 -12.302824 9.1476764e-41
10.609951 -3.0933893 -11.314307 9.1476764e-41
10.249902 -3.2862728 -12.271032 9.1476764e-41
10.850829 -3.1973536 -11.947836 9.1476764e-41
10.882189 -3.239126 -11.884766 9.1476764e-41
8.157136 -2.9518244 -10.705768 9.1476764e-41
6.6854825 -3.1315029 -13.367176 9.1476764e-41
6.7171164 -3.163528 -13.48804 9.1476764e-41
7.1245518 -3.2164454 -13.924206 9.1476764e-41
6.8096504 -2.8499293 -12.166521 9.1476764e-41
6.6628027 -2.9602931 -12.789168 9.1476764e-41
7.4340396 -3.1367304 -13.919299 9.1476764e-41
7.9417896 -3.1096034 -13.752028 9.1476764e-41
8.2818747 -3.0920527 -13.542364 9.1476764e-41
8.7264462 -2.9824793 -13.047976 9.1476764e-41
7.0454803 -2.6505427 -11.57008 9.1476764e-41
7.3849792 -2.5101404 -11.053247 9.1476764e-41
6.7637138 -2.964767 -13.42723 9.1476764e-41
9.0573874 -2.7748773 -12.606352 9.1476764e-41
6.9462361 -2.5414941 -11.545817 9.1476764e-41
7.2186584 -2.929858 -13.767617 9.1476764e-41
8.7480402 -2.4324243 -10.646211 9.1476764e-41
8.0462856 -2.805752 -13.491323 9.1476764e-41
9.3904552 -2.4553156 -10.883609 9.1476764e-41
10.057031 -2.4334955 -11.119866 9.1476764e-41
9.6734562 -2.6536157 -12.354758 9.1476764e-41
10.139513 -2.6776881 -12.288536 9.1476764e-41
10.552219 -2.4747157 -11.455197 9.1476764e-41
10.680915 -2.6494288 -12.003791 9.1476764e-41
6.6134095 -2.5375788 -12.12366 9.1476764e-41
7.7713461 -2.3279109 -10.638041 9.1476764e-41
8.2450504 -2.2845423 -10.535282 9.1476764e-41
9.631422 -2.5898921 -12.361496 9.1476764e-41
8.3432884 -2.520196 -13.01069 9.1476764e-41
7.0989189 -2.1226528 -10.950514 9.1476764e-41
6.8602943 -2.4600794 -13.053485 9.1476764e-41
7.473609 -2.4594934 -13.328469 9.1476764e-41
6.9943123 -2.0003474 -10.925602 9.1476764e-41
6.4928594 -2.2316248 -12.432932 9.1476764e-41
6.3856597 -1.9741387 -11.393048 9.1476764e-41
6.2755055 -2.1061733 -11.992434 9.1476764e-41
7.4558372 -1.8317101 -10.480737 9.1476764e-41
6.9283819 -2.2959926 -12.961938 9.1476764e-41
7.6075644 -2.2850153 -13.105534 9.1476764e-41
7.9145422 -2.1992395 -12.91916 9.1476764e-41
8.6550655 -2.1498103 -12.524758 9.1476764e-41
7.4272346 -1.7952142 -10.467397 9.1476764e-41
8.7946033 -1.8199121 -10.683946 9.1476764e-41
8.6184015 -2.1187129 -12.52007 9.1476764e-41
9.4809055 -1.7972192 -10.869208 9.1476764e-41
10.05999 -2.0793788 -12.294056 9.1476764e-41
10.492239 -2.0502589 -12.049171 9.1476764e-41
6.0944543 -1.9169152 -11.947118 9.1476764e-41
8.2470188 -1.6856164 -10.439589 9.1476764e-41
7.7514091 -2.0667598 -12.835578 9.1476764e-41
9.4262753 -1.9762536 -12.327193 9.1476764e-41
9.5622311 -1.9737512 -12.324094 9.1476764e-41
10.097808 -1.7744317 -11.138157 9.1476764e-41
10.474806 -1.865487 -11.598212 9.1476764e-41
7.6935539 -1.5739312 -10.262308 9.1476764e-41
6.578083 -1.5601617 -10.8613 9.1476764e-41
7.7517896 -1.4246881 -10.18156 9.1476764e-41
9.5212517 -1.5234826 -10.807878 9.1476764e-41
10.111716 -1.5111535 -11.130841 9.1476764e-41
7.1609044 -1.723034 -12.611205 9.1476764e-41
5.7749901 -1.3741479 -11.251662 9.1476764e-41
5.6554399 -1.4691217 -11.859992 9.1476764e-41
5.970829 -1.5380517 -12.210736 9.1476764e-41
6.8599191 -1.2405877 -10.344316 9.1476764e-41
6.5260215 -1.5785089 -12.463412 9.1476764e-41
6.7317204 -1.5440972 -12.489354 9.1476764e-41
8.020278 -1.5866449 -12.340482 9.1476764e-41
10.199429 -1.4476616 -12.020754 9.1476764e-41
5.650701 -1.2557 -11.232013 9.1476764e-41
5.5043797 -1.315963 -11.780102 9.1476764e-41
6.247715 -1.2083337 -10.785997 9.1476764e-41
6.7190957 -1.0962914 -10.314654 9.1476764e-41
6.5596228 -1.4147241 -12.425648 9.1476764e-41
8.2843952 -1.0849328 -10.261374 9.1476764e-41
7.2599111 -1.5125329 -12.462206 9.1476764e-41
8.3295174 -1.125985 -10.303893 9.1476764e-41
7.8785729 -1.477105 -12.293624 9.1476764e-41
8.1018238 -1.4377434 -12.203575 9.1476764e-41
8.9603157 -1.144671 -10.53379 9.1476764e-41
9.0028038 -1.1285211 -10.534088 9.1476764e-41
8.8863125 -1.4216301 -12.126287 9.1476764e-41
9.5239983 -1.3939019 -12.175593 9.1476764e-41
10.156962 -1.3856164 -12.012293 9.1476764e-41
7.1484427 -0.95789421 -9.8430853 9.1476764e-41
8.9800272 -1.0829705 -10.508135 9.1476764e-41
8.7043695 -1.3281426 -12.065567 9.1476764e-41
8.915885 -1.3308648 -12.083 9.1476764e-41
10.110868 -1.1056634 -11.146166 9.1476764e-41
10.179123 -1.1364586 -11.317499 9.1476764e-41
7.2854652 -0.83678824 -9.6767731 9.1476764e-41
8.3756552 -0.9630273 -10.25198 9.1476764e-41
9.6011219 -0.98698664 -10.612895 9.1476764e-41
7.8993354 -0.79248285 -9.8467817 9.1476764e-41
7.4293137 -1.150277 -12.145053 9.1476764e-41
8.2908993 -1.0621393 -11.891694 9.1476764e-41
9.6307287 -0.81625301 -10.54362 9.1476764e-41
5.7470436 -0.74436885 -10.640681 9.1476764e-41
5.8355575 -0.81207514 -10.665957 9.1476764e-41
7.4257026 -0.59181452 -9.4431238 9.1476764e-41
9.692049 -0.92208797 -11.882787 9.1476764e-41
5.0843039 -0.7087121 -11.083295 9.1476764e-41
6.2188745 -0.5903405 -10.172726 9.1476764e-41
5.4004598 -0.88003778 -12.021868 9.1476764e-41
5.9668717 -0.89685601 -12.239772 9.1476764e-41
6.0245628 -0.89008415 -12.241792 9.1476764e-41
9.1216717 -0.58122188 -10.243966 9.1476764e-41
10.009652 -0.73961419 -11.355753 9.1476764e-41
5.0681219 -0.76639032 -11.631013 9.1476764e-41
6.1178441 -0.50353324 -10.141821 9.1476764e-41
6.5413895 -0.42061087 -9.6495924 9.1476764e-41
5.9807639 -0.82603693 -12.220515 9.1476764e-41
6.8230996 -0.74141473 -11.989676 9.1476764e-41
6.8705373 -0.72820669 -11.956929 9.1476764e-41
8.5651178 -0.46686637 -10.023645 9.1476764e-41
5.3460546 -0.4733361 -10.512415 9.1476764e-41
6.4622703 -0.3385888 -9.6233931 9.1476764e-41
6.8616285 -0.20013666 -9.1773748 9.1476764e-41
8.0521564 -0.29636163 -9.5862694 9.1476764e-41
7.6011467 -0.65091181 -11.643363 9.1476764e-41
7.7442846 -0.64017874 -11.613492 9.1476764e-41
8.9063625 -0.32442865 -10.025393 9.1476764e-41
9.1591606 -0.67456597 -11.723563 9.1476764e-41
6.8071136 -0.13387689 -9.1419525 9.1476764e-41
8.6636953 -0.20201959 -9.8636694 9.1476764e-41
8.5413074 -0.52346736 -11.540153 9.1476764e-41
8.7796307 -0.53295219 -11.58145 9.1476764e-41
9.2630596 -0.49113396 -11.598861 9.1476764e-41
9.8473721 -0.50245291 -11.334231 9.1476764e-41
5.701201 -0.20552605 -10.022278 9.1476764e-41
5.4041295 -0.4445855 -11.994349 9.1476764e-41
7.0072289 0.011817084 -8.9412918 9.1476764e-41
7.614428 -0.012117853 -9.06217 9.1476764e-41
7.1161399 -0.35481805 -11.458274 9.1476764e-41
9.2158413 -0.19867791 -10.036729 9.1476764e-41
4.7792196 -0.055681698 -10.333102 9.1476764e-41
4.5751853 -0.084667295 -10.907745 9.1476764e-41
5.9334249 0.153321 -9.4806013 9.1476764e-41
6.2473655 -0.24043207 -11.775833 9.1476764e-41
7.9701209 -0.14775018 -11.227548 9.1476764e-41
4.6205163 0.10680304 -10.297209 9.1476764e-41
5.0176263 0.19576178 -9.8570395 9.1476764e-41
4.5413923 -0.0044152169 -10.951244 9.1476764e-41
4.9121337 -0.16816033 -11.630562 9.1476764e-41
5.4825401 -0.1569909 -11.883166 9.1476764e-41
7.1085882 0.32690498 -8.6864157 9.1476764e-41
9.4030085 -0.041597836 -11.228313 9.1476764e-41
5.6866612 0.35306466 -9.4069872 9.1476764e-41
6.0330071 0.3368873 -9.1929693 9.1476764e-41
6.212615 0.44339058 -8.9191809 9.1476764e-41
6.0086288 -0.077364437 -11.723205 9.1476764e-41
6.621923 0.11372138 -11.108636 9.1476764e-41
7.3903494 0.072675236 -10.982574 9.1476764e-41
8.0391836 0.10115425 -11.065959 9.1476764e-41
7.7864828 0.52230603 -8.8026762 9.1476764e-41
7.0210967 0.21559516 -10.851539 9.1476764e-41
7.4508414 0.18450996 -10.87562 9.1476764e-41
8.3008251 0.42526621 -9.2103319 9.1476764e-41
8.7412252 0.1689582 -11.163227 9.1476764e-41
9.0677271 0.20407477 -11.132817 9.1476764e-41
9.6088314 0.22373115 -10.689214 9.1476764e-41
6.5107002 0.66513437 -8.4647961 9.1476764e-41
6.6183844 0.74679637 -8.3436718 9.1476764e-41
5.6541328 0.17628242 -11.609019 9.1476764e-41
7.2354217 0.66385871 -8.4535341 9.1476764e-41
6.8114676 0.34041208 -10.752234 9.1476764e-41
8.3335323 0.52687448 -9.162406 9.1476764e-41
8.6606531 0.49835274 -9.409934 9.1476764e-41
8.8561792 0.49968636 -9.5472536 9.1476764e-41
9.3099308 0.42834237 -9.9491301 9.1476764e-41
5.3491597 0.60510629 -9.2966394 9.1476764e-41
8.8147135 0.36220774 -11.040481 9.1476764e-41
5.9386735 0.5050239 -11.072199 9.1476764e-41
7.6547318 0.60768199 -10.511886 9.1476764e-41
4.4495149 0.75412059 -9.6322489 9.1476764e-41
5.6247354 0.89947277 -8.7725477 9.1476764e-41
4.5532632 0.59560615 -11.023581 9.1476764e-41
5.0082459 0.56809455 -11.316506 9.1476764e-41
5.0699196 0.53492194 -11.353933 9.1476764e-41
8.2184458 0.60150522 -10.745933 9.1476764e-41
4.2975173 0.89155346 -9.5947142 9.1476764e-41
4.2101889 0.79338753 -10.178135 9.1476764e-41
4.634172 0.9437049 -9.2347412 9.1476764e-41
4.2203946 0.77970344 -10.259292 9.1476764e-41
4.8440299 0.95722115 -9.1157513 9.1476764e-41
5.9329414 1.0890236 -8.2520437 9.1476764e-41
5.0994916 0.59802318 -11.306331 9.1476764e-41
6.793643 1.1140449 -7.9815865 9.1476764e-41
6.2200704 0.7428413 -10.534306 9.1476764e-41
7.441956 1.161634 -8.1435423 9.1476764e-41
7.0785437 0.76266855 -10.251721 9.1476764e-41
9.0496082 0.79816657 -10.523517 9.1476764e-41
4.7112603 1.043644 -9.0743465 9.1476764e-41
5.3203163 1.123307 -8.6677876 9.1476764e-41
5.5434537 0.79160225 -10.993438 9.1476764e-41
6.0278358 0.88299328 -10.485843 9.1476764e-41
6.4337873 0.96068186 -10.15029 9.1476764e-41
6.6959114 0.94999152 -10.089131 9.1476764e-41
8.0162954 1.1897926 -8.4947615 9.1476764e-41
-4.8504 3.7642736 7.6714988 9.1476764e-41
5.0400243 1.3188545 -8.5821695 9.1476764e-41
5.6830654 1.2843391 -8.1614408 9.1476764e-41
6.2044864 1.4252784 -7.7448974 9.1476764e-41
5.3449988 0.95030588 -10.903957 9.1476764e-41
6.4983177 1.0457954 -10.026495 9.1476764e-41
7.5131841 1.3342903 -8.0424719 9.1476764e-41
7.2613387 1.0717262 -9.9511709 9.1476764e-41
8.4412117 1.2279181 -8.9053268 9.1476764e-41
8.8336678 1.1394111 -9.569479 9.1476764e-41
8.44242 0.97859871 -10.418022 9.1476764e-41
8.9201946 1.0901557 -9.8071995 9.1476764e-41
8.8287849 0.93375617 -10.439461 9.1476764e-41
-4.4093862 4.0775061 8.8156185 9.1476764e-41
-4.3819346 3.945127 8.1232748 9.1476764e-41
3.9613943 1.2190315 -9.4549551 9.1476764e-41
6.2586718 1.4885108 -7.6769705 9.1476764e-41
6.9455652 1.4761634 -7.7042265 9.1476764e-41
8.0508232 1.3488014 -8.4227552 9.1476764e-41
8.4430227 1.2967842 -8.8920898 9.1476764e-41
7.9331517 1.1433387 -10.095398 9.1476764e-41
8.5042019 1.274662 -8.9819374 9.1476764e-41
8.4984417 1.0710243 -10.305771 9.1476764e-41
-4.6434116 3.9798286 7.5157504 9.1476764e-41
4.1600637 1.4371467 -8.9071178 9.1476764e-41
5.3263354 1.5528114 -8.0495644 9.1476764e-41
5.6340108 1.1980262 -10.354493 9.1476764e-41
7.3478384 1.268769 -9.7846699 9.1476764e-41
8.677866 1.3162971 -9.7784472 9.1476764e-41
4.7536254 1.2794654 -10.649697 9.1476764e-41
5.9176383 1.4074867 -9.8167028 9.1476764e-41
6.7653966 1.4703773 -9.5240841 9.1476764e-41
4.3004446 1.7164406 -8.5249319 9.1476764e-41
3.7808399 1.5153358 -9.8454933 9.1476764e-41
4.2047834 1.4363837 -10.318798 9.1476764e-41
5.5876355 1.8860145 -7.4971228 9.1476764e-41
7.0965648 1.8839087 -7.4652214 9.1476764e-41
7.6422739 1.7843666 -7.8046203 9.1476764e-41
-5.074954 4.1790929 6.892612 9.1476764e-41
-4.1121602 4.4166327 8.5826902 9.1476764e-41
-4.8356314 4.2289314 6.9978933 9.1476764e-41
3.5845435 1.628495 -9.3605442 9.1476764e-41
3.8256691 1.6899635 -8.8177147 9.1476764e-41
4.391387 1.804911 -8.373168 9.1476764e-41
4.4535246 1.7594703 -8.3919353 9.1476764e-41
4.9216146 1.5156593 -10.387999 9.1476764e-41
6.4782686 1.9845314 -7.268044 9.1476764e-41
6.1931906 1.7066047 -9.3205118 9.1476764e-41
8.1790409 1.6623268 -9.5522604 9.1476764e-41
-4.9326234 4.3222389 6.8046317 9.1476764e-41
-4.3191524 4.3527412 7.2528529 9.1476764e-41
-3.9300587 4.4779243 7.769434 9.1476764e-41
4.6587391 1.9424782 -8.010622 9.1476764e-41
4.7822895 1.9625587 -7.8884988 9.1476764e-41
5.0528593 1.6305275 -10.183819 9.1476764e-41
5.4822259 1.7228004 -9.683547 9.1476764e-41
8.3915539 1.762516 -9.0077505 9.1476764e-41
-4.0782561 4.7136879 8.6831598 9.1476764e-41
-3.9345512 4.6573491 8.4260302 9.1476764e-41
3.4925864 1.952494 -8.7633247 9.1476764e-41
4.641923 2.0728064 -7.8435636 9.1476764e-41
5.0188656 2.1904426 -7.4531178 9.1476764e-41
5.2156758 2.1336889 -7.4082379 9.1476764e-41
5.3364997 1.8390968 -9.6323099 9.1476764e-41
6.5652013 2.225733 -7.1233749 9.1476764e-41
5.925869 1.8539436 -9.2260227 9.1476764e-41
6.315064 1.8936073 -9.108119 9.1476764e-41
7.1897364 2.1719122 -7.3514009 9.1476764e-41
7.005497 1.8968482 -9.1780987 9.1476764e-41
7.4731817 1.8968605 -9.2817564 9.1476764e-41
8.1052389 2.0793066 -8.2168465 9.1476764e-41
7.6587515 1.9035652 -9.3101397 9.1476764e-41
8.3075294 1.8935981 -8.9720068 9.1476764e-41
3.8053198 2.1648536 -8.1875401 9.1476764e-41
5.0426645 2.2623479 -7.362071 9.1476764e-41
5.8973536 2.269309 -7.0614066 9.1476764e-41
7.7104311 2.1956275 -7.6792417 9.1476764e-41
-4.0944676 4.5887914 7.0792685 9.1476764e-41
-3.7862315 4.6903024 7.6452045 9.1476764e-41
5.6004691 2.089994 -9.0819588 9.1476764e-41
-5.259202 4.5851598 6.1743498 9.1476764e-41
4.1363544 2.4228582 -7.6564689 9.1476764e-41
3.8050923 2.1186438 -9.8319759 9.1476764e-41
4.4413605 2.073313 -9.947279 9.1476764e-41
6.4575744 2.2001166 -8.8433428 9.1476764e-41
-5.3846841 4.6945472 5.9284987 9.1476764e-41
-5.0801358 4.6897101 6.0660596 9.1476764e-41
-4.4757013 4.7471261 6.4597564 9.1476764e-41
-4.2475023 4.7603765 6.5835242 9.1476764e-41
3.1054182 2.4187841 -8.2400808 9.1476764e-41
3.2040687 2.4588783 -7.9703317 9.1476764e-41
3.354984 2.5037544 -7.760674 9.1476764e-41
3.0924957 2.3683965 -8.6536016 9.1476764e-41
3.3587942 2.2536414 -9.3594751 9.1476764e-41
5.29948 2.6784551 -6.8361478 9.1476764e-41
4.1659813 2.2076941 -9.8579998 9.1476764e-41
4.7361403 2.2858496 -9.4416618 9.1476764e-41
7.8296762 2.3564641 -8.8143196 9.1476764e-41
-4.3252916 4.8549142 6.3138723 9.1476764e-41
-3.7263885 4.9162331 6.8168645 9.1476764e-41
2.9915137 2.4746466 -8.5759449 9.1476764e-41
3.6678839 2.6137578 -7.464479 9.1476764e-41
4.3792386 2.6977179 -7.179543 9.1476764e-41
4.4825792 2.6964393 -7.1423292 9.1476764e-41
5.0148606 2.4834144 -8.8893347 9.1476764e-41
5.8706574 2.518955 -8.6033192 9.1476764e-41
-4.1490207 5.2766519 8.626298 9.1476764e-41
-3.7687793 5.2506475 8.180934 9.1476764e-41
-3.6392918 5.1887155 7.8815107 9.1476764e-41
-3.5637057 5.0991187 7.3854003 9.1476764e-41
2.7132788 2.7353735 -7.7486839 9.1476764e-41
2.9946814 2.8339241 -7.18226 9.1476764e-41
5.0916438 2.841706 -6.7369599 9.1476764e-41
3.8768268 2.3738623 -9.6817865 9.1476764e-41
5.461247 2.9522681 -6.5409369 9.1476764e-41
4.5345106 2.4176185 -9.3950481 9.1476764e-41
4.7132187 2.4786963 -9.1205044 9.1476764e-41
4.8404465 2.5512671 -8.9020224 9.1476764e-41
5.0077186 2.4942358 -8.8783436 9.1476764e-41
5.7893095 2.576328 -8.5664797 9.1476764e-41
5.911881 2.6047583 -8.5334692 9.1476764e-41
7.3147078 2.6220007 -8.6239805 9.1476764e-41
7.8571076 2.6469886 -8.230545 9.1476764e-41
-5.511899 4.8981633 5.5860572 9.1476764e-41
-4.9447169 4.9006448 5.3296528 9.1476764e-41
-4.7021847 4.920136 5.7592244 9.1476764e-41
-3.866873 4.9952064 6.1298442 9.1476764e-41
-3.4877722 5.114521 6.6736941 9.1476764e-41
3.8580739 2.9543219 -6.9167395 9.1476764e-41
5.9335461 3.0135748 -6.5048013 9.1476764e-41
6.1749659 2.9817054 -6.5792708 9.1476764e-41
6.2742114 2.9747717 -6.6172094 9.1476764e-41
6.7723927 2.9719121 -6.8689108 9.1476764e-41
7.2543364 2.9195228 -7.25635 9.1476764e-41
7.655035 2.786051 -7.7093534 9.1476764e-41
7.3353271 2.6672704 -8.5803728 9.1476764e-41
-4.5258951 5.0039983 5.6027036 9.1476764e-41
4.7027311 3.0543706 -6.6000443 9.1476764e-41
4.1353226 2.6984839 -9.2556438 9.1476764e-41
5.5804205 3.1736152 -6.3483911 9.1476764e-41
6.7415929 2.8124151 -8.4286442 9.1476764e-41
6.8841972 2.7598121 -8.480319 9.1476764e-41
-5.1890173 5.0040565 4.7149158 9.1476764e-41
-4.4404511 5.0297647 4.8731198 9.1476764e-41
-4.4826331 5.0204506 4.9106898 9.1476764e-41
-4.0946956 5.1095223 5.4877238 9.1476764e-41
-4.1092196 5.1165199 5.402864 9.1476764e-41
-3.3839393 5.1280737 5.8139682 9.1476764e-41
2.4171379 3.1211462 -6.9567704 9.1476764e-41
3.2827706 3.1473792 -6.6720266 9.1476764e-41
4.4247856 2.9144263 -8.6957884 9.1476764e-41
5.2810507 2.8810828 -8.3777409 9.1476764e-41
7.4700055 2.9878027 -8.0896521 9.1476764e-41
-5.657742 5.2211404 5.5284429 9.1476764e-41
-5.6062388 5.1931067 5.3748021 9.1476764e-41
-4.1905446 5.6567941 8.2606049 9.1476764e-41
-5.3292303 5.1082129 4.7337794 9.1476764e-41
-5.2474208 5.0849614 4.6107745 9.1476764e-41
-4.6596828 4.9738259 4.449985 9.1476764e-41
-3.9590299 5.1345892 5.3694797 9.1476764e-41
-3.6208639 5.159049 5.2538943 9.1476764e-41
2.6627693 3.3676093 -6.4088778 9.1476764e-41
2.9394491 2.9780462 -8.8522835 9.1476764e-41
4.1296377 3.2867651 -6.3886323 9.1476764e-41
4.9966145 3.4013495 -6.114965 9.1476764e-41
-4.7894368 5.0525703 4.1374974 9.1476764e-41
-4.2831745 5.0334816 4.1578631 9.1476764e-41
-4.1473174 5.0536108 4.0534253 9.1476764e-41
-3.8461256 5.1259742 4.4585729 9.1476764e-41
-3.0181394 5.440177 6.16646 9.1476764e-41
-3.4092963 5.1844459 5.098907 9.1476764e-41
2.0422997 3.5108345 -6.1527195 9.1476764e-41
2.0160918 3.3225927 -6.8787456 9.1476764e-41
2.5416269 3.4018011 -6.3584237 9.1476764e-41
2.1572638 3.2816474 -7.4975739 9.1476764e-41
2.7582085 3.4770117 -6.2332296 9.1476764e-41
2.1996505 3.2677526 -7.5995517 9.1476764e-41
3.5270631 3.5130286 -6.1386647 9.1476764e-41
2.5281043 3.1178992 -8.3065701 9.1476764e-41
3.5807276 3.5077369 -6.1401544 9.1476764e-41
2.5642669 3.1027441 -8.3712301 9.1476764e-41
3.5004814 3.0106115 -9.0910187 9.1476764e-41
3.5895102 3.0426581 -9.0608044 9.1476764e-41
4.7048039 3.1818762 -8.2014475 9.1476764e-41
6.1341429 3.1580756 -8.1529541 9.1476764e-41
-3.7574749 5.7714424 7.6659503 9.1476764e-41
-3.4559848 5.6962347 7.1842122 9.1476764e-41
-3.3517151 5.6563516 6.9806323 9.1476764e-41
-3.1101446 5.4969001 6.4260592 9.1476764e-41
-2.8939333 5.3461003 5.5379286 9.1476764e-41
-3.5824134 5.1186986 3.7442489 9.1476764e-41
-3.2698362 5.1778908 4.2724752 9.1476764e-41
-2.9294739 5.2850227 4.8549733 9.1476764e-41
1.5121622 3.6321936 -5.9004765 9.1476764e-41
1.7850137 3.4375982 -6.7579699 9.1476764e-41
4.4118872 3.5772407 -5.9024162 9.1476764e-41
3.5376647 3.0773382 -9.0331278 9.1476764e-41
4.0009651 3.2378454 -8.6014776 9.1476764e-41
6.9586506 3.3383155 -7.8736525 9.1476764e-41
-4.7904019 5.85221 7.8915706 9.1476764e-41
-4.289403 5.8493657 7.9706016 9.1476764e-41
-2.9627671 5.6505532 6.2822514 9.1476764e-41
-2.678241 5.5057869 5.4197721 9.1476764e-41
-2.7478225 5.282279 4.0011106 9.1476764e-41
1.3300691 3.6417913 -6.4549122 9.1476764e-41
2.9553514 3.7052619 -5.8797927 9.1476764e-41
3.8299234 3.8065374 -5.6135621 9.1476764e-41
4.0373287 3.7298925 -5.7090712 9.1476764e-41
5.1825542 3.7493079 -5.8051023 9.1476764e-41
4.4410548 3.3480139 -8.1162319 9.1476764e-41
4.8401141 3.3980138 -7.9709854 9.1476764e-41
5.7909765 3.7351294 -6.0515227 9.1476764e-41
5.5364146 3.3911779 -7.9823647 9.1476764e-41
5.6437411 3.3914587 -7.9870381 9.1476764e-41
6.9356112 3.5525243 -7.2082105 9.1476764e-41
6.8106885 3.4407783 -7.8202519 9.1476764e-41
-5.5936875 5.5458627 5.3977056 9.1476764e-41
-3.0240304 5.2442298 3.4332466 9.1476764e-41
1.2339194 3.9709327 -5.0921841 9.1476764e-41
1.8056467 3.8670721 -5.3490105 9.1476764e-41
2.3755867 3.8078163 -5.6118922 9.1476764e-41
3.00718 3.3580389 -8.7002954 9.1476764e-41
3.8404891 3.3584144 -8.5422916 9.1476764e-41
6.3049846 3.7514257 -6.3555665 9.1476764e-41
6.740108 3.6335914 -6.8250775 9.1476764e-41
6.3016467 3.4584205 -7.9406486 9.1476764e-41
-5.2019181 5.9066839 6.9050145 9.1476764e-41
-4.4462194 5.9942298 7.6408024 9.1476764e-41
-3.8841445 5.3451452 3.100718 9.1476764e-41
-3.2515564 5.3369665 2.9186518 9.1476764e-41
-2.3780582 5.5375738 4.5342417 9.1476764e-41
0.95295888 3.9040899 -5.6694431 9.1476764e-41
3.2488015 3.9958746 -5.3732405 9.1476764e-41
4.6587887 3.9566412 -5.4495087 9.1476764e-41
4.1174283 3.5627325 -7.9855871 9.1476764e-41
-5.3529139 5.6541142 4.4801068 9.1476764e-41
-3.8980172 6.0687413 7.3077197 9.1476764e-41
-4.9153404 5.5274358 3.8145366 9.1476764e-41
-4.4401679 5.4512486 3.4108148 9.1476764e-41
-4.2613707 5.4318609 3.2736688 9.1476764e-41
-3.9134049 5.3972936 3.0328119 9.1476764e-41
-3.5475385 5.358161 2.8988383 9.1476764e-41
-3.3472047 5.3939157 2.7324224 9.1476764e-41
-2.5359995 5.4144902 3.110532 9.1476764e-41
-2.4368598 5.4455543 3.0501845 9.1476764e-41
-2.3344679 5.4534674 3.2629433 9.1476764e-41
-2.1181943 5.5377874 3.6280136 9.1476764e-41
0.67203391 4.1679387 -4.8480997 9.1476764e-41
2.6694803 4.157505 -5.1159205 9.1476764e-41
4.0960321 4.1071234 -5.172812 9.1476764e-41
3.234812 3.6797919 -8.2795591 9.1476764e-41
4.9642711 3.7233679 -7.7281423 9.1476764e-41
6.4494777 3.691416 -7.7123785 9.1476764e-41
-5.3576918 5.9314642 5.9032912 9.1476764e-41
-5.0731068 6.0795112 6.4690909 9.1476764e-41
-4.7448902 6.1211343 7.0339017 9.1476764e-41
-5.4633341 5.8294134 5.2496138 9.1476764e-41
-5.3398528 5.7102761 4.4735446 9.1476764e-41
-2.2203264 5.8317418 4.817225 9.1476764e-41
-2.0536766 5.7426734 4.2855926 9.1476764e-41
-2.7811661 5.4603982 2.3932443 9.1476764e-41
-1.9961373 5.6738625 3.9485686 9.1476764e-41
-1.6077378 5.3840766 1.917349 9.1476764e-41
-1.3231083 5.2514534 1.0678651 9.1476764e-41
-1.0275239 5.3221016 1.6435643 9.1476764e-41
0.94448614 4.3543801 -4.302177 9.1476764e-41
1.5220134 4.3186712 -4.5827751 9.1476764e-41
3.5265665 4.2892251 -4.9010458 9.1476764e-41
2.6416214 3.7493474 -8.0155468 9.1476764e-41
3.5260017 3.8549628 -7.7798772 9.1476764e-41
5.3370852 4.155808 -5.6129785 9.1476764e-41
6.629838 3.9411993 -7.1432152 9.1476764e-41
-5.1256118 6.0791326 6.2786436 9.1476764e-41
-5.0190692 6.1259313 6.429337 9.1476764e-41
-4.8368974 6.1490302 6.7782445 9.1476764e-41
-5.2882395 6.0161872 5.8430591 9.1476764e-41
-2.9954393 6.1619878 6.3166828 9.1476764e-41
-2.5615075 6.0838752 5.7644758 9.1476764e-41
-2.6082554 6.0969853 5.8419571 9.1476764e-41
-2.2919943 5.9264684 5.1063118 9.1476764e-41
-1.9393498 5.811173 4.1538444 9.1476764e-41
-2.4924009 5.4321694 1.5965754 9.1476764e-41
-2.1834002 5.4652381 2.1779034 9.1476764e-41
-1.8086002 5.5805821 2.7611229 9.1476764e-41
-1.8837217 5.3312721 1.3522413 9.1476764e-41
-0.75390673 5.2558112 0.77165067 9.1476764e-41
-0.44320416 5.3614297 1.3444116 9.1476764e-41
0.36158282 4.4707894 -4.0427737 9.1476764e-41
0.45885953 4.5514288 -3.8114903 9.1476764e-41
1.0686275 4.5261483 -4.0512004 9.1476764e-41
0.69317567 4.2745275 -5.6758766 9.1476764e-41
2.6686213 4.7999091 -2.3560359 9.1476764e-41
0.91301167 4.1530066 -6.3310862 9.1476764e-41
2.1901016 4.4254584 -4.6507921 9.1476764e-41
1.2264501 4.0412054 -6.8462296 9.1476764e-41
1.6616623 3.9645393 -7.2271152 9.1476764e-41
2.1631401 3.9774115 -7.5401187 9.1476764e-41
4.3809309 3.9688208 -7.4784737 9.1476764e-41
-4.4349399 6.2713051 6.8548117 9.1476764e-41
-4.129642 6.3153419 6.8322043 9.1476764e-41
-3.4756162 6.2455449 6.676847 9.1476764e-41
-3.1527259 5.5418739 1.8000698 9.1476764e-41
-1.2718745 5.6274085 2.4970551 9.1476764e-41
-1.6301153 5.3270364 0.44988334 9.1476764e-41
-0.76627535 5.5857673 2.1525464 9.1476764e-41
-1.0288491 5.2733679 0.20986101 9.1476764e-41
-0.14759035 5.3278966 0.46188462 9.1476764e-41
-0.1622276 4.8676062 -2.3502703 9.1476764e-41
0.10843325 4.9537053 -1.7923017 9.1476764e-41
0.056492958 4.7452092 -3.2379947 9.1476764e-41
0.080681577 4.7492986 -3.1988244 9.1476764e-41
0.375029 4.8399696 -2.6569829 9.1476764e-41
0.66492969 4.9545326 -2.0917094 9.1476764e-41
0.11422981 4.5552773 -4.57127 9.1476764e-41
0.63715476 4.6949563 -3.5145144 9.1476764e-41
0.14770912 4.538352 -4.6342912 9.1476764e-41
0.15757851 4.5134711 -4.5991859 9.1476764e-41
0.51825351 4.3808265 -5.2867441 9.1476764e-41
2.0991428 4.9364629 -2.0907376 9.1476764e-41
1.7070781 4.5877967 -4.2397823 9.1476764e-41
2.3876727 4.8122015 -2.9320703 9.1476764e-41
2.941952 4.9907813 -1.8271018 9.1476764e-41
2.3670633 4.6088262 -4.3514347 9.1476764e-41
3.226469 4.8249059 -2.6497133 9.1476764e-41
2.6956148 4.5490637 -4.500844 9.1476764e-41
2.9521875 4.4821053 -4.6250725 9.1476764e-41
2.9276359 4.0810246 -7.5733342 9.1476764e-41
3.8033507 4.1484046 -7.2746544 9.1476764e-41
4.4472585 4.1227026 -7.3550048 9.1476764e-41
5.0391812 4.0371404 -7.5400224 9.1476764e-41
5.8859272 4.3318582 -5.9958596 9.1476764e-41
5.7797823 4.1103768 -7.537693 9.1476764e-41
-4.1795549 6.3527594 6.728281 9.1476764e-41
-2.8063846 5.538404 0.97395152 9.1476764e-41
-1.5361793 5.8678808 3.3047867 9.1476764e-41
-2.2730865 5.441071 0.65521938 9.1476764e-41
-1.7696919 5.3926611 0.20250481 9.1476764e-41
-0.47594735 5.3010077 -0.11228603 9.1476764e-41
0.12384678 5.4837594 1.0258881 9.1476764e-41
-0.067679383 5.2977819 -0.34039736 9.1476764e-41
-0.54735017 5.1366887 -1.5278317 9.1476764e-41
-0.6106624 5.1008 -1.7901249 9.1476764e-41
-0.48789054 5.1148748 -1.5443997 9.1476764e-41
-0.20515312 5.2140908 -0.98668146 9.1476764e-41
-0.039381608 5.2607217 -0.67501688 9.1476764e-41
0.24061073 5.3125982 -0.17417878 9.1476764e-41
0.409545 5.375205 0.16848211 9.1476764e-41
-0.5632236 5.0167184 -2.2120225 9.1476764e-41
0.34939021 5.2668405 -0.52562463 9.1476764e-41
-0.35304147 4.8992376 -2.6727712 9.1476764e-41
0.37908909 5.1112404 -1.250013 9.1476764e-41
0.6855402 5.241889 -0.68545663 9.1476764e-41
-0.16003159 4.7486486 -3.7864575 9.1476764e-41
0.95124906 5.0821691 -1.5334527 9.1476764e-41
-0.10237474 4.7057838 -3.8146739 9.1476764e-41
0.59851497 4.8680396 -2.7883196 9.1476764e-41
1.0162557 4.9921393 -2.2916491 9.1476764e-41
0.9359898 4.9164772 -2.9772639 9.1476764e-41
1.2164941 4.9995885 -2.4125009 9.1476764e-41
1.416332 5.0370336 -2.0170591 9.1476764e-41
1.5211744 5.0659461 -1.8188951 9.1476764e-41
1.2182659 4.7084174 -3.7978129 9.1476764e-41
1.784631 4.9331093 -2.6891916 9.1476764e-41
1.8186787 4.9310431 -2.6246293 9.1476764e-41
2.3738177 5.1224647 -1.5605922 9.1476764e-41
1.8485584 4.9204869 -2.7117245 9.1476764e-41
1.794897 4.6823125 -4.0817184 9.1476764e-41
2.076736 4.8283334 -3.5353804 9.1476764e-41
2.1900921 4.8345222 -3.3142142 9.1476764e-41
2.6582904 4.7631903 -3.8100288 9.1476764e-41
2.7577572 4.7818975 -3.6188667 9.1476764e-41
2.9522204 4.7953072 -3.2282667 9.1476764e-41
3.2937291 4.8413796 -3.4064338 9.1476764e-41
3.1744294 4.6835394 -4.20999 9.1476764e-41
3.2452145 4.7302804 -4.0856414 9.1476764e-41
3.7918329 4.6673193 -4.4176259 9.1476764e-41
4.3545728 4.6267128 -4.7295828 9.1476764e-41
3.6719337 4.2079687 -7.217289 9.1476764e-41
3.8454778 4.2190652 -7.1915793 9.1476764e-41
4.8913264 4.5853677 -5.0916395 9.1476764e-41
5.3944697 4.5260777 -5.5232825 9.1476764e-41
6.0346708 4.4169011 -6.196671 9.1476764e-41
6.2378917 4.3263769 -6.4588418 9.1476764e-41
5.8093472 4.1638951 -7.4931188 9.1476764e-41
5.8522596 4.1329141 -7.5100517 9.1476764e-41
6.3964887 4.1939521 -7.080152 9.1476764e-41
-3.5942938 6.4695807 6.4198346 9.1476764e-41
-3.6556091 5.7249303 2.1103678 9.1476764e-41
-3.3008025 5.695066 1.3486058 9.1476764e-41
-3.122035 5.6410041 1.1384325 9.1476764e-41
-2.848516 5.5777106 0.86918199 9.1476764e-41
-1.341715 5.3849463 -0.41416395 9.1476764e-41
-0.20020521 5.6858649 1.8407094 9.1476764e-41
-1.2409348 5.3707619 -0.48231924 9.1476764e-41
-0.78519648 5.3063879 -0.72609562 9.1476764e-41
0.58987308 5.5961308 0.663032 9.1476764e-41
0.83630246 5.3832831 -0.18172012 9.1476764e-41
1.2518873 5.2605233 -0.97452641 9.1476764e-41
1.3766199 5.2798438 -1.0193071 9.1476764e-41
1.8381392 5.2835517 -1.2613615 9.1476764e-41
1.4933834 4.9139748 -3.2720785 9.1476764e-41
3.5020366 5.0691323 -2.1291108 9.1476764e-41
3.5597026 4.9023995 -3.5406921 9.1476764e-41
3.841543 4.7219582 -4.35288 9.1476764e-41
5.8626919 4.4575505 -5.9946394 9.1476764e-41
-5.0587053 6.3521156 4.9218817 9.1476764e-41
-4.479269 6.5096078 6.0538363 9.1476764e-41
-4.2923083 6.0543737 3.0925496 9.1476764e-41
-4.0275383 5.9421849 2.6138132 9.1476764e-41
-3.8552301 5.8894477 2.2889688 9.1476764e-41
-3.6865799 5.8233771 1.9759868 9.1476764e-41
-3.3219867 5.7372441 1.2621984 9.1476764e-41
-0.84848589 5.1953011 -2.1767097 9.1476764e-41
-0.54475862 5.0342932 -3.0200143 9.1476764e-41
1.4002215 5.4489264 -0.68181175 9.1476764e-41
2.4948072 5.3353186 -1.3382033 9.1476764e-41
0.86165214 4.6677742 -5.8668861 9.1476764e-41
1.2629296 4.5388556 -6.653738 9.1476764e-41
3.7568171 5.2150335 -2.290189 9.1476764e-41
3.766428 5.0455389 -2.9739156 9.1476764e-41
3.8008449 5.0664163 -2.9957662 9.1476764e-41
2.354881 4.3707986 -7.2504792 9.1476764e-41
3.2169256 4.4584723 -6.9870901 9.1476764e-41
4.4830637 4.8450203 -4.6148744 9.1476764e-41
6.064805 4.5034127 -6.9715323 9.1476764e-41
-4.7837424 6.5078468 5.4785695 9.1476764e-41
-5.0025625 6.4040565 4.8850665 9.1476764e-41
-4.8928971 6.2539067 4.1177897 9.1476764e-41
-4.8132882 6.277842 4.0247631 9.1476764e-41
-4.4500532 6.1499887 3.3938029 9.1476764e-41
-3.0778661 6.5956674 6.0086646 9.1476764e-41
-1.1232162 6.1569009 2.9842887 9.1476764e-41
-1.0532699 6.1358833 2.89503 9.1476764e-41
-2.0193 5.5921121 -0.27033988 9.1476764e-41
0.1708771 5.9000039 1.6499441 9.1476764e-41
-1.1769328 5.425077 -1.3791494 9.1476764e-41
0.33066326 5.8356543 1.3739078 9.1476764e-41
0.69141304 5.7891517 0.79728419 9.1476764e-41
0.90671611 5.7500463 0.44306701 9.1476764e-41
1.0478064 5.7261024 0.20541519 9.1476764e-41
1.365562 5.5637765 -0.46479285 9.1476764e-41
3.1211872 5.3608251 -1.5184162 9.1476764e-41
3.6028545 5.2892218 -1.957621 9.1476764e-41
1.7930245 4.5410194 -6.9705286 9.1476764e-41
5.217062 4.4870553 -7.2578359 9.1476764e-41
-4.7015448 6.570765 5.4212775 9.1476764e-41
-2.6335557 6.6262121 5.5365744 9.1476764e-41
-2.2154303 6.5424199 4.8702111 9.1476764e-41
-1.878269 6.4208441 4.3313127 9.1476764e-41
-1.5155313 6.3127508 3.6681418 9.1476764e-41
-2.5489378 5.7544928 0.030719528 9.1476764e-41
-0.58186328 6.1008492 2.4761519 9.1476764e-41
-0.10115772 6.0512643 2.0548279 9.1476764e-41
0.090896063 4.9634895 -4.7182617 9.1476764e-41
2.6317863 4.7062902 -6.7482014 9.1476764e-41
4.1841974 5.1664467 -3.8590822 9.1476764e-41
4.0668879 4.679215 -6.7530656 9.1476764e-41
4.6430902 4.6106238 -7.0108743 9.1476764e-41
-3.9497259 6.7579446 5.7774615 9.1476764e-41
-3.9273658 6.7633095 5.7761493 9.1476764e-41
-3.1403813 6.7260475 5.8519025 9.1476764e-41
-0.27700552 5.2331643 -4.1254168 9.1476764e-41
0.57623315 5.0635352 -5.0887642 9.1476764e-41
1.4315484 4.8565283 -6.2137513 9.1476764e-41
2.0376954 4.8470101 -6.5016336 9.1476764e-41
3.4889116 4.8224831 -6.4901648 9.1476764e-41
-4.2615299 6.5428047 3.6862948 9.1476764e-41
-3.0199573 5.9747167 0.35867482 9.1476764e-41
-1.7117038 5.7608223 -1.141045 9.1476764e-41
-1.3869945 5.6808171 -1.8480098 9.1476764e-41
-1.3125095 5.652781 -2.0535009 9.1476764e-41
-1.0425212 5.541532 -2.64292 9.1476764e-41
-0.8791393 5.4857979 -2.9480529 9.1476764e-41
-0.65325058 5.4055943 -3.3580556 9.1476764e-41
-0.44661075 5.3146615 -3.7849224 9.1476764e-41
0.1035498 5.190104 -4.6151485 9.1476764e-41
0.62555182 5.1902413 -4.9773293 9.1476764e-41
1.1260226 5.0989447 -5.3935633 9.1476764e-41
2.2231951 4.9936624 -6.1521945 9.1476764e-41
2.8959718 4.9822302 -6.2092276 9.1476764e-41
5.03371 5.1185369 -4.9957733 9.1476764e-41
5.6787472 4.9682379 -6.2210679 9.1476764e-41
5.506032 4.8952003 -6.7764182 9.1476764e-41
-4.4552293 6.7375188 4.5380368 9.1476764e-41
-4.2135005 6.8478551 5.0956893 9.1476764e-41
-3.9143124 6.461277 2.8528986 9.1476764e-41
-3.5626552 6.2985787 1.2921191 9.1476764e-41
-3.4058013 6.2237401 0.89705145 9.1476764e-41
-3.102726 6.1356878 0.39138013 9.1476764e-41
-3.0219753 6.1157842 0.28333417 9.1476764e-41
-2.5564213 6.0235295 -0.26221377 9.1476764e-41
-2.1303303 5.9435921 -0.73532438 9.1476764e-41
-1.9687175 5.9054208 -0.92795557 9.1476764e-41
-1.7335936 5.828321 -1.2208587 9.1476764e-41
-1.3974978 5.7641454 -1.9949435 9.1476764e-41
0.42052838 6.2782173 1.4664074 9.1476764e-41
1.1936705 5.1753488 -5.2801781 9.1476764e-41
3.2094615 5.8352728 -1.4097103 9.1476764e-41
1.7456347 5.136878 -5.6368151 9.1476764e-41
1.796982 5.1128945 -5.719121 9.1476764e-41
2.3311791 5.0808935 -5.9500132 9.1476764e-41
4.074615 5.6578345 -2.5397756 9.1476764e-41
3.6184061 5.0257058 -6.2581344 9.1476764e-41
4.2331157 5.0208106 -6.4774947 9.1476764e-41
5.0292873 5.3092599 -4.9734931 9.1476764e-41
5.148057 5.275074 -5.166523 9.1476764e-41
5.3735042 5.1760077 -5.567698 9.1476764e-41
4.8751307 5.0317025 -6.6735458 9.1476764e-41
5.3687963 4.9668493 -6.7259116 9.1476764e-41
-3.9454648 6.8512273 4.2226362 9.1476764e-41
-3.3628423 6.9463387 5.376411 9.1476764e-41
-3.6870911 6.708045 3.3703444 9.1476764e-41
-2.818259 6.9216313 5.0625806 9.1476764e-41
-3.673701 6.4318733 1.8801155 9.1476764e-41
-3.6605377 6.4807382 1.9824184 9.1476764e-41
-1.956901 6.7511268 3.9379997 9.1476764e-41
-0.26253065 5.4934697 -3.9945233 9.1476764e-41
1.4270846 5.4297462 -4.8824291 9.1476764e-41
4.3282375 5.6250587 -3.4207048 9.1476764e-41
4.5977793 5.4801855 -4.2384324 9.1476764e-41
4.6238666 5.4311957 -4.3091149 9.1476764e-41
4.9298129 5.1362557 -6.5613747 9.1476764e-41
-3.6585143 6.9857488 4.7860646 9.1476764e-41
-3.3835866 6.881217 3.9349654 9.1476764e-41
-3.073245 6.9861975 4.5037069 9.1476764e-41
-3.6311691 6.6183114 2.6529391 9.1476764e-41
-2.4728956 6.8923898 4.2464151 9.1476764e-41
-1.6329566 6.787766 3.1613588 9.1476764e-41
0.76023632 6.4137092 0.79132485 9.1476764e-41
0.97145152 6.334754 0.37634298 9.1476764e-41
1.1286956 6.2711983 0.060035918 9.1476764e-41
1.5223081 6.1533332 -0.55879766 9.1476764e-41
0.25903419 5.5584235 -4.356411 9.1476764e-41
2.0189955 6.0798225 -0.9583407 9.1476764e-41
2.5371327 6.0572057 -1.1485881 9.1476764e-41
0.85223144 5.5007696 -4.6154947 9.1476764e-41
2.6263251 6.0391517 -1.1734668 9.1476764e-41
3.213943 6.0257087 -1.4281291 9.1476764e-41
3.3793032 6.0071054 -1.5408069 9.1476764e-41
2.0211701 5.4233556 -5.1567554 9.1476764e-41
3.7081387 5.9499211 -1.861715 9.1476764e-41
2.6116776 5.4109654 -5.4305964 9.1476764e-41
4.0978775 5.8093209 -2.5548487 9.1476764e-41
3.1806908 5.3317847 -5.7238617 9.1476764e-41
3.7568712 5.2775307 -6.0065413 9.1476764e-41
4.3352962 5.2509832 -6.2867608 9.1476764e-41
