ply
format ascii 1.0
comment PCL generated
element vertex 1201
property float x
property float y
property float z
property uchar red
property uchar green
property uchar blue
element camera 0
property float view_px
property float view_py
property float view_pz
property float x_axisx
property float x_axisy
property float x_axisz
property float y_axisx
property float y_axisy
property float y_axisz
property float z_axisx
property float z_axisy
property float z_axisz
property float focal
property float scalex
property float scaley
property float centerx
property float centery
property int viewportx
property int viewporty
property float k1
property float k2
end_header
-18.355497 13.0348 4.2249627 255 0 0
-17.82346 13.161025 4.6250558 255 0 0
-21.401937 13.364849 5.7166643 255 0 0
-20.189053 13.57055 6.949966 255 0 0
-19.836035 13.606413 7.0240941 255 0 0
-19.408167 13.630232 7.0405087 255 0 0
-17.31638 13.429732 5.7205944 255 0 0
-17.66168 13.201094 4.7844424 255 0 0
-17.422573 13.286066 5.1277528 255 0 0
-21.229315 13.56018 6.2936125 255 0 0
-18.76886 13.631188 6.9234605 255 0 0
-18.154516 13.604026 6.6846657 255 0 0
-17.63415 13.551591 6.3293705 255 0 0
-21.330452 13.410117 4.0358334 255 0 0
-21.266096 13.334627 3.4161363 255 0 0
-20.106394 13.208848 2.8827517 255 0 0
-21.818081 13.723507 5.0836992 255 0 0
-21.489891 13.566858 4.3331575 255 0 0
-21.310204 13.422255 3.1281586 255 0 0
-20.892597 13.284209 2.6977458 255 0 0
-20.14748 13.293005 2.7735071 255 0 0
-20.054911 13.30893 2.823689 255 0 0
-19.523254 13.426391 3.2584033 255 0 0
-21.901749 13.953856 5.8071527 255 0 0
-21.561695 14.018989 6.354022 255 0 0
-20.966763 13.431683 2.5143368 255 0 0
-19.024471 13.544724 3.6986744 255 0 0
-18.905706 13.571504 3.7924042 255 0 0
-18.46311 13.663947 4.1122699 255 0 0
-21.01782 14.119505 6.6866884 255 0 0
-20.890287 14.142498 6.7172389 255 0 0
-21.628174 13.70573 4.1659555 255 0 0
-20.224442 14.190583 6.7918706 255 0 0
-17.923025 13.790748 4.5095501 255 0 0
-17.502096 13.922375 5.018826 255 0 0
-22.097242 14.150331 5.8533449 255 0 0
-22.054983 13.884223 4.4794712 255 0 0
-19.789261 14.222968 6.8307486 255 0 0
-19.438492 14.243812 6.8475666 255 0 0
-18.786793 14.256681 6.7809029 255 0 0
-18.171513 14.232174 6.5655599 255 0 0
-17.657881 14.173679 6.1843991 255 0 0
-17.39233 14.056937 5.631145 255 0 0
-17.388409 14.003198 5.3906298 255 0 0
-21.797886 14.274378 6.3885674 255 0 0
-21.469046 13.697045 2.8137438 255 0 0
-21.813326 14.002824 3.5017304 255 0 0
-21.849596 14.010116 3.5938241 255 0 0
-20.420166 13.735671 2.1665082 255 0 0
-21.437304 14.510679 6.7222562 255 0 0
-22.311865 14.158677 3.9619279 255 0 0
-21.640009 13.951036 2.8264005 255 0 0
-21.556746 13.895376 2.6384311 255 0 0
-20.459467 13.790747 2.0979185 255 0 0
-20.344604 13.813293 2.1321354 255 0 0
-19.830503 13.917034 2.556725 255 0 0
-19.485022 14.031366 3.0556891 255 0 0
-22.396406 14.546391 5.9072695 255 0 0
-19.071306 14.167921 3.5608344 255 0 0
-18.921513 14.206799 3.6996555 255 0 0
-22.078695 14.701163 6.4124203 255 0 0
-18.52038 14.292177 4.0066743 255 0 0
-17.982145 14.410704 4.4158077 255 0 0
-21.682888 14.830003 6.6996188 255 0 0
-21.274954 14.851968 6.775456 255 0 0
-20.770638 14.829787 6.7241573 255 0 0
-20.198332 14.821211 6.6368113 255 0 0
-19.855627 14.838047 6.6409106 255 0 0
-19.473751 14.864933 6.6834607 255 0 0
-18.788946 14.893296 6.6836257 255 0 0
-18.178394 14.871672 6.4803071 255 0 0
-17.688066 14.800787 6.0586734 255 0 0
-17.477234 14.695614 5.5535612 255 0 0
-17.586493 14.548079 4.9132338 255 0 0
-20.122137 14.409746 1.8618606 255 0 0
-19.770063 14.523081 2.3609192 255 0 0
-19.501516 14.656248 2.9092143 255 0 0
-19.157282 14.790681 3.4137089 255 0 0
-18.763729 14.888781 3.7697976 255 0 0
-18.623459 14.917295 3.8746505 255 0 0
-18.054733 15.03527 4.3126678 255 0 0
-20.932043 15.407081 6.5321646 255 0 0
-20.229982 15.430363 6.4608564 255 0 0
-19.857573 15.462737 6.519125 255 0 0
-19.490822 15.498257 6.5975485 255 0 0
-17.538004 15.312072 5.3984823 255 0 0
-17.672966 15.165381 4.7895155 255 0 0
-21.034986 15.547239 6.4704609 255 0 0
-18.767591 15.542095 6.625504 255 0 0
-17.704203 15.430151 5.940866 255 0 0
-18.172602 15.601854 6.405375 255 0 0
-18.762167 15.754594 6.6057663 255 0 0
-20.090357 15.001421 1.6582688 255 0 0
-19.825884 15.142051 2.22841 255 0 0
-19.583267 15.285203 2.8017728 255 0 0
-19.218779 15.419725 3.3003943 255 0 0
-18.734114 15.537742 3.7256873 255 0 0
-18.709141 15.542792 3.7450619 255 0 0
-21.182606 16.013344 6.2145662 255 0 0
-20.775091 16.015347 6.2273908 255 0 0
-20.281937 16.051453 6.3289995 255 0 0
-18.149397 15.665167 4.1982713 255 0 0
-17.760672 15.79754 4.6831231 255 0 0
-19.89118 16.097965 6.4453793 255 0 0
-19.505539 16.137051 6.5401554 255 0 0
-18.819572 16.179642 6.5666037 255 0 0
-18.762472 16.180363 6.5582428 255 0 0
-18.17201 16.155703 6.3354769 255 0 0
-18.050924 16.137768 6.2465119 255 0 0
-17.708311 16.053131 5.8016515 255 0 0
-17.598803 15.943478 5.2872744 255 0 0
-20.200994 15.61654 1.5659423 255 0 0
-20.045052 15.772241 2.1807473 255 0 0
-19.776684 15.923635 2.7355709 255 0 0
-19.274504 16.043674 3.1997788 255 0 0
-21.20978 16.547012 5.8663068 255 0 0
-20.789518 16.608418 6.0132833 255 0 0
-18.805042 16.152098 3.563637 255 0 0
-18.741201 16.166985 3.6136107 255 0 0
-18.221838 16.291698 4.0623703 255 0 0
-20.237345 16.699745 6.2805667 255 0 0
-20.099459 16.720335 6.3346572 255 0 0
-19.515299 16.777004 6.4772348 255 0 0
-20.241779 16.065866 2.2074172 255 0 0
-19.929808 16.206491 2.7386336 255 0 0
-17.637062 16.571554 5.174211 255 0 0
-17.823969 16.426453 4.5689301 255 0 0
-18.812056 16.811705 6.4758301 255 0 0
-18.17683 16.789434 6.2392097 255 0 0
-17.92341 16.749496 6.0157933 255 0 0
-17.731489 16.689587 5.7098551 255 0 0
-21.370871 16.774185 5.5450697 255 0 0
-20.584803 16.270496 1.5861999 255 0 0
-20.55171 16.250422 1.652136 255 0 0
-20.555756 16.237288 1.5809524 255 0 0
-21.697962 16.960066 4.9982872 255 0 0
-20.748335 16.488445 2.3695951 255 0 0
-20.445047 16.624708 2.8307796 255 0 0
-19.832914 16.615612 2.9086399 255 0 0
-19.330908 16.670248 3.083586 255 0 0
-21.741009 17.011059 4.8710999 255 0 0
-20.741751 17.189306 5.7859445 255 0 0
-20.42042 16.689383 2.8820038 255 0 0
-18.84763 16.762526 3.3699353 255 0 0
-18.740568 16.785126 3.449877 255 0 0
-20.998398 17.163769 5.3306246 255 0 0
-20.205231 17.348621 6.2294302 255 0 0
-20.703764 16.75493 2.8999155 255 0 0
-18.23217 16.915396 3.914767 255 0 0
-17.848482 17.04664 4.4183125 255 0 0
-21.270479 17.151632 4.8185501 255 0 0
-19.494427 17.420458 6.4107962 255 0 0
-18.923386 17.442013 6.3997684 255 0 0
-18.78359 17.446651 6.3776035 255 0 0
-18.185932 17.425407 6.1443129 255 0 0
-17.839201 17.361202 5.797874 255 0 0
-17.746443 17.329872 5.6295938 255 0 0
-17.647329 17.189266 4.9947896 255 0 0
-20.923069 17.351759 5.2252507 255 0 0
-21.300627 16.91473 2.5426202 255 0 0
-21.194281 16.801985 1.7491114 255 0 0
-21.05615 17.128893 3.013268 255 0 0
-21.350834 16.916544 1.8151705 255 0 0
-21.988375 17.413044 4.2304373 255 0 0
-21.967644 17.43149 4.2059469 255 0 0
-20.234127 17.685827 6.1721973 255 0 0
-21.540407 17.092373 2.202352 255 0 0
-19.869951 17.243267 2.8901207 255 0 0
-21.200811 17.561604 4.4170408 255 0 0
-21.526033 17.231813 2.5768919 255 0 0
-21.696539 17.200335 1.9409112 255 0 0
-21.186764 17.370762 3.0390487 255 0 0
-21.055988 17.374882 3.0978439 255 0 0
-20.406036 17.301601 3.0498185 255 0 0
-19.313789 17.295092 2.9368222 255 0 0
-18.962854 17.35111 3.0946743 255 0 0
-18.694681 17.405375 3.2801795 255 0 0
-20.785646 17.77453 5.2946773 255 0 0
-20.667601 17.840687 5.6406355 255 0 0
-21.113525 17.601711 4.4923944 255 0 0
-20.847055 17.730778 5.0598173 255 0 0
-18.216381 17.53046 3.7378247 255 0 0
-20.27882 17.977591 6.1091285 255 0 0
-20.208027 17.991665 6.1538906 255 0 0
-19.497068 18.060303 6.3536806 255 0 0
-19.008898 18.072836 6.3431911 255 0 0
-17.745377 17.960728 5.5213947 255 0 0
-17.63225 17.811401 4.830689 255 0 0
-17.830795 17.668034 4.249496 255 0 0
-21.81435 17.585354 2.6177998 255 0 0
-18.777342 18.085802 6.3030653 255 0 0
-18.188683 18.060699 6.051507 255 0 0
-17.80196 17.98181 5.6304698 255 0 0
-22.301016 17.796911 3.564467 255 0 0
-21.401812 17.881149 3.825279 255 0 0
-21.353804 17.71706 3.1696846 255 0 0
-21.892653 17.851885 3.3331103 255 0 0
-22.098906 17.770046 2.6922164 255 0 0
-21.737 17.837206 3.2650473 255 0 0
-22.295912 17.655781 2.1353602 255 0 0
-21.603745 17.862743 3.4804571 255 0 0
-21.260059 17.930325 3.4271142 255 0 0
-22.567669 17.89851 3.0061831 255 0 0
-21.02512 18.167229 4.3027658 255 0 0
-21.230764 18.037743 3.693799 255 0 0
-20.987982 18.00564 3.3131137 255 0 0
-20.407078 17.944881 2.9822979 255 0 0
-19.869282 17.881123 2.7618954 255 0 0
-19.231142 17.921942 2.8029213 255 0 0
-19.169807 17.931324 2.8241189 255 0 0
-22.913309 17.934763 2.3534839 255 0 0
-20.821478 18.399073 5.1848965 255 0 0
-20.874975 18.333973 4.9040704 255 0 0
-18.679646 18.022097 3.1008694 255 0 0
-18.19198 18.140415 3.5475764 255 0 0
-20.715063 18.478928 5.5278225 255 0 0
-20.332075 18.610283 6.0191402 255 0 0
-20.241766 18.630054 6.0809631 255 0 0
-17.598051 18.432003 4.6632433 255 0 0
-17.786865 18.284231 4.0732732 255 0 0
-20.903553 18.538378 4.8713713 255 0 0
-20.948088 18.288364 3.4125555 255 0 0
-19.454941 18.708965 6.3162513 255 0 0
-18.755392 18.735126 6.2482977 255 0 0
-18.187887 18.700993 5.971293 255 0 0
-17.784523 18.606466 5.5084805 255 0 0
-17.727247 18.583866 5.3961196 255 0 0
-20.428617 18.567245 2.9104388 255 0 0
-17.757713 18.686089 3.9569151 255 0 0
-20.95265 18.959188 4.8115621 255 0 0
-20.96678 18.918987 4.6318655 255 0 0
-20.986145 18.798483 4.1322541 255 0 0
-20.889751 18.652386 3.4233816 255 0 0
-20.829132 18.636219 3.30685 255 0 0
-19.822313 18.532736 2.6764166 255 0 0
-19.462427 18.543369 2.6732228 255 0 0
-19.082783 18.582211 2.7664359 255 0 0
-18.702156 18.647413 2.9571531 255 0 0
-20.804743 19.108114 5.4154234 255 0 0
-20.404434 19.238638 5.9208398 255 0 0
-17.718607 19.145643 5.3381085 255 0 0
-18.152769 18.770271 3.3940296 255 0 0
-17.940742 18.833044 3.6210659 255 0 0
-17.747854 18.906351 3.8961298 255 0 0
-20.281275 19.263077 6.0060282 255 0 0
-19.675295 19.346258 6.2341566 255 0 0
-19.412031 19.366678 6.2676926 255 0 0
-18.742216 19.378595 6.1949315 255 0 0
-17.726194 19.232241 5.3482513 255 0 0
-17.697239 19.21995 5.2889509 255 0 0
-17.579048 19.013062 4.3332949 255 0 0
-17.555285 19.048996 4.4856744 255 0 0
-18.182364 19.343292 5.9039912 255 0 0
-20.950571 19.407055 4.672205 255 0 0
-19.792288 19.126272 2.6338468 255 0 0
-20.896219 19.417234 3.9335439 255 0 0
-20.853806 19.257015 3.2703359 255 0 0
-20.449924 19.174992 2.7773447 255 0 0
-19.8356 19.183506 2.6309195 255 0 0
-19.054548 19.234875 2.7459977 255 0 0
-20.844839 19.73106 5.2889228 255 0 0
-20.933603 19.597975 4.7087374 255 0 0
-20.926291 19.576235 4.5954366 255 0 0
-20.852915 19.335438 3.2540178 255 0 0
-18.777113 19.27634 2.8560057 255 0 0
-18.176598 19.395428 3.2557621 255 0 0
-17.94453 19.459337 3.4901149 255 0 0
-20.46945 19.863453 5.7868748 255 0 0
-20.302341 19.895126 5.9054708 255 0 0
-19.725651 19.974846 6.1373377 255 0 0
-17.561781 19.646984 4.2382474 255 0 0
-17.544647 19.670113 4.334516 255 0 0
-17.758459 19.5257 3.7466254 255 0 0
-20.876997 19.644573 3.4189234 255 0 0
-19.428026 20.000469 6.1847835 255 0 0
-18.733047 20.022758 6.1136012 255 0 0
-18.172291 19.978048 5.8207269 255 0 0
-17.728533 19.88052 5.2997384 255 0 0
-17.615456 19.830021 5.0476122 255 0 0
-17.773186 19.744825 3.6980364 255 0 0
-20.842291 19.99033 3.6498415 255 0 0
-20.8612 19.883667 3.1092324 255 0 0
-20.460104 19.781649 2.6437583 255 0 0
-20.116211 19.819427 2.5745866 255 0 0
-20.873838 20.247086 4.6720667 255 0 0
-20.83136 20.187809 4.3896494 255 0 0
-20.80792 20.099646 3.941617 255 0 0
-20.847883 20.012369 3.5964816 255 0 0
-19.717848 19.849369 2.5913126 255 0 0
-19.010719 19.891495 2.7315204 255 0 0
-18.896706 19.90626 2.7677228 255 0 0
-20.841497 20.35458 5.1337295 255 0 0
-20.495947 20.487108 5.6649132 255 0 0
-20.38043 20.511814 5.7583494 255 0 0
-18.24806 20.01823 3.115418 255 0 0
-17.800583 20.148651 3.6072257 255 0 0
-19.777975 20.602428 6.0405416 255 0 0
-19.438028 20.635277 6.1018467 255 0 0
-20.857704 20.208004 3.0667861 255 0 0
-18.735704 20.660517 6.0236468 255 0 0
-18.176994 20.610186 5.7206874 255 0 0
-17.723963 20.508041 5.1831493 255 0 0
-17.599627 20.450138 4.8835597 255 0 0
-17.565393 20.29324 4.1962447 255 0 0
-20.8755 20.313648 3.2897069 255 0 0
-20.451338 20.417656 2.5944719 255 0 0
-20.883545 20.788107 4.2088499 255 0 0
-20.882639 20.628731 3.5153384 255 0 0
-20.851492 20.508682 3.0154476 255 0 0
-20.175705 20.453209 2.5369527 255 0 0
-19.723816 20.489586 2.5430715 255 0 0
-18.997402 20.524395 2.6665998 255 0 0
-17.812918 20.653296 3.4879425 255 0 0
-20.916349 20.87257 4.5488844 255 0 0
-18.26539 20.643753 2.9924767 255 0 0
-17.948702 20.725115 3.2802393 255 0 0
-17.812571 20.771505 3.4607062 255 0 0
-20.426491 20.846151 2.6098435 255 0 0
21.569719 -27.499847 2.7759597 0 255 0
22.097258 -27.136045 3.6670032 0 255 0
20.746008 -27.189552 2.4555633 0 255 0
21.320547 -26.988243 3.6024058 0 255 0
21.709761 -27.181238 2.0874221 0 255 0
23.132164 -26.981281 3.1802392 0 255 0
20.415457 -26.885834 2.4431415 0 255 0
20.554396 -26.97761 2.1146011 0 255 0
21.128944 -27.03253 1.8535706 0 255 0
21.5061 -27.013222 1.8735456 0 255 0
21.905409 -26.974457 1.9532858 0 255 0
22.443651 -26.912704 2.1089661 0 255 0
23.212139 -26.899475 2.7123144 0 255 0
20.560316 -26.743269 3.038672 0 255 0
20.995764 -26.63801 3.4859438 0 255 0
21.415813 -26.57811 3.6946254 0 255 0
21.828341 -26.5455 3.7997546 0 255 0
22.13019 -26.535789 3.8295374 0 255 0
22.762234 -26.86879 2.228173 0 255 0
23.155874 -26.799721 2.4566314 0 255 0
23.349703 -26.505564 3.4526558 0 255 0
23.511543 -26.626694 2.9490728 0 255 0
20.309141 -26.610996 1.6298664 0 255 0
20.903189 -26.547504 1.2888343 0 255 0
20.172789 -26.295395 2.3872252 0 255 0
20.127806 -26.451588 1.7108921 0 255 0
20.252592 -26.492018 1.4519306 0 255 0
21.700951 -26.465672 1.5558531 0 255 0
21.855215 -26.444853 1.6179034 0 255 0
22.544958 -26.36042 1.8410481 0 255 0
22.748808 -26.342789 1.9020994 0 255 0
23.718075 -26.267426 2.7543695 0 255 0
20.523298 -26.155643 2.9128418 0 255 0
21.153555 -26.032974 3.3268778 0 255 0
22.037519 -26.002872 3.6450403 0 255 0
23.364708 -26.260715 2.1685019 0 255 0
23.784182 -26.072126 2.9680529 0 255 0
22.009665 -25.917841 3.5868001 0 255 0
22.079847 -25.913542 3.6013598 0 255 0
22.62055 -25.894188 3.6669729 0 255 0
23.661367 -26.143341 2.4081614 0 255 0
23.801729 -26.040995 2.6552961 0 255 0
20.056898 -26.103172 0.97345477 0 255 0
21.792723 -26.0849 1.4016265 0 255 0
19.993359 -25.984772 0.8695752 0 255 0
19.921474 -25.803841 1.6719768 0 255 0
19.92008 -25.956181 0.98141909 0 255 0
20.579103 -26.008137 0.61945081 0 255 0
21.312355 -25.932158 0.94082755 0 255 0
21.651937 -25.87566 1.1795363 0 255 0
21.880159 -25.840082 1.3231287 0 255 0
22.664541 -25.800835 1.6134332 0 255 0
20.269207 -25.662968 2.1918063 0 255 0
20.78911 -25.53299 2.5640721 0 255 0
20.851488 -25.547144 2.6290028 0 255 0
22.667946 -25.759583 1.5924172 0 255 0
23.535408 -25.649372 1.9061452 0 255 0
23.571535 -25.616892 1.9164274 0 255 0
21.685802 -25.37956 2.9504178 0 255 0
23.916746 -25.440973 2.414403 0 255 0
22.442259 -25.301582 3.2618616 0 255 0
21.443935 -25.611412 0.80408055 0 255 0
23.382839 -25.293756 3.3055308 0 255 0
22.567867 -25.115839 3.1680145 0 255 0
20.505342 -25.25478 1.9927856 0 255 0
19.717323 -25.325504 0.9433549 0 255 0
20.013985 -25.191132 1.4604465 0 255 0
19.831785 -25.429794 0.41147894 0 255 0
20.376188 -25.465925 0.14763722 0 255 0
20.955244 -25.424244 0.28495407 0 255 0
21.290228 -25.369043 0.48295364 0 255 0
21.558434 -25.314768 0.67500758 0 255 0
20.282726 -25.096531 1.6450272 0 255 0
20.668089 -25.02829 1.8681885 0 255 0
22.865227 -24.885605 3.0933094 0 255 0
22.161465 -25.222269 1.0470691 0 255 0
22.40103 -25.196928 1.1315958 0 255 0
21.309471 -24.948669 2.2225811 0 255 0
21.463167 -24.922306 2.3006928 0 255 0
23.147142 -25.064095 1.2757936 0 255 0
23.169615 -25.094513 1.3078611 0 255 0
23.745613 -24.971954 1.6974362 0 255 0
21.395546 -24.799896 2.1382549 0 255 0
22.041357 -24.799055 2.5974593 0 255 0
22.395515 -24.741571 2.7841294 0 255 0
22.724669 -24.720093 2.9281971 0 255 0
22.291714 -25.029945 0.94349921 0 255 0
23.759909 -24.741007 2.6321669 0 255 0
23.906248 -24.855097 2.2384846 0 255 0
20.168636 -24.801697 1.3098778 0 255 0
19.762148 -24.738483 0.76828933 0 255 0
19.783327 -24.842802 0.15195933 0 255 0
20.272863 -24.900953 -0.14921908 0 255 0
21.117586 -24.834908 0.0080261035 0 255 0
20.114763 -24.586494 1.1065055 0 255 0
21.84063 -24.693073 0.39788809 0 255 0
22.11993 -24.670073 0.55172229 0 255 0
22.512697 -24.628441 0.70814961 0 255 0
20.981377 -24.43722 1.5569869 0 255 0
21.206413 -24.422386 1.6973917 0 255 0
21.583549 -24.356886 1.9224398 0 255 0
22.231123 -24.283253 2.3422139 0 255 0
22.955564 -24.551493 0.83149505 0 255 0
23.648329 -24.29784 2.2811911 0 255 0
23.382818 -24.471033 1.0356904 0 255 0
22.20281 -24.224091 2.280318 0 255 0
22.255835 -24.218491 2.3097191 0 255 0
23.089479 -24.175079 2.5294406 0 255 0
23.624727 -24.205885 2.1830289 0 255 0
23.737947 -24.354832 1.5336549 0 255 0
21.948458 -24.416573 0.26300195 0 255 0
21.073702 -24.10354 1.3863933 0 255 0
19.813545 -24.208586 0.13656282 0 255 0
19.955019 -24.265135 -0.21268761 0 255 0
20.19216 -24.300751 -0.38895297 0 255 0
20.956419 -24.290016 -0.39798203 0 255 0
19.932241 -24.095383 0.49862188 0 255 0
21.356295 -24.219267 -0.24302983 0 255 0
21.812599 -24.129744 -0.013210378 0 255 0
22.060797 -24.098259 0.11715001 0 255 0
20.506268 -23.943476 0.92706913 0 255 0
21.002092 -23.891459 1.2019031 0 255 0
21.13817 -23.875233 1.2798957 0 255 0
21.810225 -23.737894 1.6668898 0 255 0
22.801247 -23.968092 0.44309679 0 255 0
23.368172 -23.874397 0.87683505 0 255 0
21.981915 -23.70351 1.75749 0 255 0
22.608543 -23.625196 1.9738672 0 255 0
22.844902 -23.61912 1.9803846 0 255 0
23.406309 -23.667616 1.6308252 0 255 0
23.463543 -23.699549 1.5300211 0 255 0
23.379381 -23.604767 1.566633 0 255 0
20.762188 -23.842903 -0.7561031 0 255 0
21.900246 -23.524332 1.5826739 0 255 0
22.788677 -23.487827 1.8553834 0 255 0
19.946478 -23.643852 -0.3562957 0 255 0
20.115705 -23.699594 -0.67446667 0 255 0
20.718819 -23.722822 -0.85564691 0 255 0
20.836102 -23.717453 -0.83423966 0 255 0
20.141054 -23.470932 0.21969382 0 255 0
21.589506 -23.598652 -0.49467471 0 255 0
21.657122 -23.588997 -0.45225266 0 255 0
20.734169 -23.348347 0.64835632 0 255 0
21.352415 -23.25658 1.0286653 0 255 0
21.616133 -23.497131 -0.53807116 0 255 0
22.189938 -23.503345 -0.13056271 0 255 0
22.708021 -23.394829 0.16910347 0 255 0
22.861706 -23.359003 0.28186247 0 255 0
21.771029 -23.167509 1.2750673 0 255 0
22.066917 -23.108055 1.4160414 0 255 0
22.650099 -23.065367 1.520883 0 255 0
23.19562 -23.138351 1.1182226 0 255 0
23.216976 -23.239109 0.78404599 0 255 0
19.996176 -23.027708 -0.53283185 0 255 0
20.359093 -22.884796 -0.032346681 0 255 0
20.037252 -23.109154 -0.97025406 0 255 0
20.53034 -23.171381 -1.2975049 0 255 0
21.149248 -23.126472 -1.15249 0 255 0
21.457893 -23.062864 -0.9525212 0 255 0
21.723875 -23.011116 -0.74422807 0 255 0
20.504814 -22.855635 0.076659814 0 255 0
20.969179 -22.764647 0.36771163 0 255 0
22.289522 -22.887821 -0.33049786 0 255 0
22.665779 -22.791862 -0.046476521 0 255 0
20.422955 -22.717457 -0.10796048 0 255 0
21.556078 -22.637016 0.78979599 0 255 0
22.133608 -22.547798 1.153795 0 255 0
22.539471 -22.512871 1.2089609 0 255 0
23.032625 -22.582609 0.73957962 0 255 0
23.033186 -22.586365 0.7446928 0 255 0
22.836922 -22.741255 0.12858984 0 255 0
20.411974 -22.726547 -1.5924278 0 255 0
21.299404 -22.754021 -1.3275645 0 255 0
20.121405 -22.402506 -0.76155353 0 255 0
20.018557 -22.488571 -1.0664872 0 255 0
20.096077 -22.555704 -1.4122106 0 255 0
20.386568 -22.606565 -1.6602002 0 255 0
20.552217 -22.614754 -1.706157 0 255 0
21.176973 -22.561607 -1.573208 0 255 0
21.378447 -22.52832 -1.4313132 0 255 0
20.612862 -22.254608 -0.30044401 0 255 0
21.202898 -22.187565 0.14196126 0 255 0
21.877363 -22.403654 -0.97636122 0 255 0
22.400251 -22.265991 -0.52246642 0 255 0
21.15852 -22.139143 0.06962698 0 255 0
21.223904 -22.124153 0.12027241 0 255 0
21.709078 -22.021406 0.56444812 0 255 0
22.255697 -21.939417 0.91457695 0 255 0
22.451687 -21.921722 0.93715423 0 255 0
22.551805 -22.229704 -0.39375702 0 255 0
22.877645 -22.127991 -0.033999428 0 255 0
22.951504 -21.964737 0.62273848 0 255 0
22.97769 -21.978874 0.55811101 0 255 0
22.445696 -22.047691 -0.59579021 0 255 0
22.981428 -21.702915 0.54290676 0 255 0
20.102583 -21.93907 -1.5337441 0 255 0
20.324959 -21.998825 -1.9359632 0 255 0
20.956047 -22.016361 -2.0547712 0 255 0
22.735506 -21.607786 0.7633006 0 255 0
20.274117 -21.795715 -1.0109608 0 255 0
20.786648 -21.646152 -0.53917992 0 255 0
22.393148 -21.536787 0.78369051 0 255 0
21.594097 -21.899612 -1.6699946 0 255 0
22.038786 -21.772657 -1.1938921 0 255 0
20.916037 -21.614622 -0.44093779 0 255 0
21.343523 -21.51725 -0.083043322 0 255 0
22.318077 -21.703011 -0.91634846 0 255 0
22.525587 -21.648232 -0.73400205 0 255 0
21.834673 -21.398054 0.38870308 0 255 0
22.354769 -21.318552 0.69697219 0 255 0
22.416634 -21.313416 0.71041173 0 255 0
22.992928 -21.324045 0.53860611 0 255 0
23.083717 -21.353535 0.40805686 0 255 0
22.990438 -21.499916 -0.27021694 0 255 0
20.252478 -21.335077 -1.7816266 0 255 0
20.337368 -21.393192 -2.0890338 0 255 0
20.834829 -21.433699 -2.3679376 0 255 0
21.100246 -21.422417 -2.3216143 0 255 0
20.442919 -21.172386 -1.2711152 0 255 0
21.700788 -21.279371 -1.8721216 0 255 0
20.885042 -21.025537 -0.76489258 0 255 0
21.056911 -21.016508 -0.57736093 0 255 0
21.339689 -20.939903 -0.30063596 0 255 0
22.11455 -21.157785 -1.3785856 0 255 0
22.60335 -21.037128 -0.92987573 0 255 0
20.47101 -21.047775 -1.3287095 0 255 0
21.904543 -20.7822 0.21680823 0 255 0
22.106611 -20.741425 0.36776075 0 255 0
22.450598 -20.694977 0.53561467 0 255 0
23.294943 -20.746864 0.12547663 0 255 0
23.102764 -20.891859 -0.47262058 0 255 0
23.013073 -20.661961 0.50076163 0 255 0
20.347424 -20.92667 -1.9857045 0 255 0
20.37557 -20.722267 -2.0443487 0 255 0
20.7363 -20.812082 -2.6390958 0 255 0
21.299725 -20.799314 -2.5378571 0 255 0
21.746014 -20.717585 -2.0921311 0 255 0
20.576544 -20.555988 -1.5108712 0 255 0
20.977964 -20.440973 -0.96216172 0 255 0
21.401175 -20.331314 -0.49963382 0 255 0
22.168224 -20.579018 -1.551417 0 255 0
22.66065 -20.435236 -1.1069121 0 255 0
21.947561 -20.165192 0.019862274 0 255 0
22.027636 -20.147408 0.08843375 0 255 0
23.155682 -20.279362 -0.64659899 0 255 0
22.463717 -20.077057 0.3639937 0 255 0
23.009123 -20.038782 0.38872054 0 255 0
22.205441 -20.317015 -1.678676 0 255 0
23.361773 -20.130537 -0.088765927 0 255 0
21.846184 -20.383121 -2.2447472 0 255 0
21.972197 -19.892155 -0.072394654 0 255 0
21.463507 -20.350346 -2.7673826 0 255 0
20.380911 -20.107386 -2.2289469 0 255 0
21.357586 -20.23266 -2.9341424 0 255 0
21.566515 -20.205341 -2.8304772 0 255 0
20.646278 -19.964577 -1.6837479 0 255 0
21.08037 -19.823933 -1.1588964 0 255 0
20.637651 -20.158516 -2.9584062 0 255 0
22.040255 -20.085011 -2.3579235 0 255 0
22.351742 -19.988907 -1.8071703 0 255 0
22.798201 -19.843781 -1.305482 0 255 0
21.535978 -19.691086 -0.67747927 0 255 0
21.769304 -19.611814 -0.43552253 0 255 0
23.215818 -19.665638 -0.80620295 0 255 0
22.02026 -19.547403 -0.18501559 0 255 0
22.526892 -19.469322 0.15951829 0 255 0
22.954817 -19.448502 0.1891634 0 255 0
22.240032 -19.851221 -2.4811597 0 255 0
23.338039 -19.517578 -0.26627484 0 255 0
22.606512 -19.600685 -2.0173948 0 255 0
23.245937 -19.425058 -0.86651289 0 255 0
20.317533 -19.526672 -2.4250002 0 255 0
20.566765 -19.631285 -3.1793528 0 255 0
20.651907 -19.664808 -3.2190287 0 255 0
21.220472 -19.688446 -3.3185763 0 255 0
21.974936 -19.640289 -3.1397762 0 255 0
20.65103 -19.357075 -1.8119103 0 255 0
20.341539 -19.570637 -2.9140353 0 255 0
21.983873 -19.586842 -3.1831441 0 255 0
22.995832 -19.286207 -1.5265197 0 255 0
21.098356 -19.213539 -1.3398465 0 255 0
21.650551 -19.059601 -0.82705355 0 255 0
22.794313 -19.306452 -2.1878061 0 255 0
23.019381 -19.216169 -1.557664 0 255 0
22.569118 -19.420771 -2.7579794 0 255 0
22.120998 -18.934919 -0.39796728 0 255 0
22.742287 -18.865915 -0.10508516 0 255 0
22.848946 -18.868118 -0.10620402 0 255 0
23.260311 -18.909433 -0.40975323 0 255 0
23.301611 -18.927362 -0.52458704 0 255 0
23.28797 -19.039885 -0.97955459 0 255 0
21.632036 -18.930326 -0.89365894 0 255 0
22.816961 -18.732674 -0.18516405 0 255 0
20.661034 -19.086197 -3.4738925 0 255 0
21.151808 -19.130564 -3.5895121 0 255 0
20.244402 -18.890858 -2.5273795 0 255 0
20.269691 -18.973106 -3.0801351 0 255 0
20.510138 -19.029606 -3.3966739 0 255 0
21.88027 -19.055206 -3.5736132 0 255 0
22.27607 -18.972404 -3.4581432 0 255 0
20.551918 -18.691246 -1.9262643 0 255 0
21.029818 -18.588737 -1.4673778 0 255 0
22.669735 -18.868723 -3.1311383 0 255 0
22.755011 -18.840769 -3.0039616 0 255 0
22.988298 -18.715504 -2.4349623 0 255 0
21.552792 -18.47504 -1.1021696 0 255 0
21.671968 -18.446953 -1.0194933 0 255 0
22.270739 -18.322544 -0.61809975 0 255 0
23.351789 -18.422943 -1.2157962 0 255 0
23.188591 -18.579182 -1.8146106 0 255 0
22.711309 -18.288914 -0.46101165 0 255 0
23.242855 -18.322117 -0.70610791 0 255 0
21.038622 -18.696833 -3.7999525 0 255 0
20.189217 -18.22941 -2.5952666 0 255 0
20.232143 -18.368427 -3.2458341 0 255 0
20.448406 -18.432585 -3.591948 0 255 0
20.981153 -18.49585 -3.8999445 0 255 0
21.327309 -18.512505 -3.9482498 0 255 0
21.735083 -18.482193 -3.9291601 0 255 0
20.449316 -18.084099 -2.0339873 0 255 0
20.617296 -18.037632 -1.8465928 0 255 0
20.951124 -17.9646 -1.5927154 0 255 0
22.370268 -18.353462 -3.6491661 0 255 0
22.747458 -18.240065 -3.1626883 0 255 0
21.621313 -17.853104 -1.2416071 0 255 0
21.673885 -17.842705 -1.2138621 0 255 0
21.633154 -18.257172 -4.0955849 0 255 0
23.010206 -18.097498 -2.5865974 0 255 0
23.264227 -17.954426 -1.9943271 0 255 0
22.436943 -17.716846 -0.83557606 0 255 0
22.555937 -17.707253 -0.80007493 0 255 0
23.193153 -17.707779 -0.91367823 0 255 0
23.403435 -17.808012 -1.413058 0 255 0
22.476896 -17.476038 -0.90091115 0 255 0
20.301338 -17.774546 -3.519577 0 255 0
20.395144 -17.814768 -3.7123826 0 255 0
20.870068 -17.891636 -4.1982646 0 255 0
21.451391 -17.892902 -4.3749323 0 255 0
20.231209 -17.582788 -2.6543367 0 255 0
20.442781 -17.469151 -2.1793227 0 255 0
20.525484 -17.438175 -2.0781415 0 255 0
20.211025 -17.606674 -2.7749441 0 255 0
21.895027 -17.857349 -4.2639103 0 255 0
22.344347 -17.750374 -3.8250313 0 255 0
20.967907 -17.337126 -1.7290769 0 255 0
21.469719 -17.255686 -1.4602892 0 255 0
21.744955 -17.215416 -1.3060701 0 255 0
22.612062 -17.600178 -3.264946 0 255 0
22.899145 -17.465691 -2.7016931 0 255 0
22.420256 -17.112797 -0.97938138 0 255 0
22.475462 -17.10434 -0.96409971 0 255 0
23.176207 -17.077442 -1.0576061 0 255 0
23.428255 -17.192682 -1.6013035 0 255 0
23.247246 -17.329258 -2.1713943 0 255 0
20.377691 -17.2931 -3.7161298 0 255 0
22.447073 -16.954542 -0.97704792 0 255 0
20.783422 -17.30662 -4.4510193 0 255 0
21.357546 -17.346296 -4.7310948 0 255 0
20.532803 -16.871902 -2.3731375 0 255 0
20.340929 -16.991892 -2.9925997 0 255 0
20.3906 -17.164906 -3.7507348 0 255 0
20.377249 -17.150995 -3.6940286 0 255 0
22.310284 -17.126015 -3.9619243 0 255 0
22.0804 -17.248169 -4.5109835 0 255 0
20.989672 -16.711594 -1.884419 0 255 0
22.372786 -16.949188 -3.2895784 0 255 0
22.661018 -16.830931 -2.7395456 0 255 0
22.094435 -17.1796 -4.5385208 0 255 0
21.354261 -16.640099 -1.5885108 0 255 0
21.601448 -16.596964 -1.3965086 0 255 0
22.111609 -16.47768 -1.060312 0 255 0
23.14164 -16.71463 -2.2863476 0 255 0
23.412111 -16.575972 -1.7482631 0 255 0
21.517738 -16.48321 -1.4522978 0 255 0
22.617821 -16.412926 -0.91783464 0 255 0
23.208471 -16.440723 -1.1347735 0 255 0
22.308455 -16.779245 -3.2901573 0 255 0
22.568655 -16.602669 -2.7425928 0 255 0
20.648855 -16.747675 -4.7151489 0 255 0
21.331457 -16.797071 -5.0185966 0 255 0
20.419634 -16.537699 -3.8758576 0 255 0
21.888933 -16.698845 -4.9404626 0 255 0
22.157324 -16.636208 -4.6883612 0 255 0
20.69828 -16.26449 -2.5991173 0 255 0
20.481075 -16.417107 -3.4340484 0 255 0
20.517321 -16.382679 -3.2329676 0 255 0
21.878216 -16.030924 -1.1225004 0 255 0
20.615591 -16.624138 -4.7925758 0 255 0
22.186363 -16.360666 -3.5004096 0 255 0
22.272875 -16.504667 -4.1051068 0 255 0
22.27737 -16.534204 -4.2359896 0 255 0
20.99749 -16.108589 -2.0802312 0 255 0
21.382429 -15.966635 -1.5599706 0 255 0
22.18482 -16.29351 -3.2971599 0 255 0
22.447945 -16.14328 -2.7757215 0 255 0
22.664894 -16.117298 -2.5833664 0 255 0
22.95693 -16.086067 -2.3508959 0 255 0
20.573082 -16.130283 -3.3472457 0 255 0
21.836998 -15.842709 -1.1357298 0 255 0
21.914238 -15.824896 -1.0864432 0 255 0
22.655386 -15.760345 -0.92578638 0 255 0
23.177832 -15.81217 -1.2383052 0 255 0
23.300564 -15.959435 -1.8574458 0 255 0
20.281593 -16.123747 -4.5241799 0 255 0
21.261532 -16.272602 -5.2507286 0 255 0
20.375109 -15.935919 -4.1184549 0 255 0
20.405546 -15.919497 -4.0392184 0 255 0
20.241131 -16.008286 -4.5787354 0 255 0
20.495138 -16.171936 -5.1764388 0 255 0
21.247032 -16.208845 -5.2831821 0 255 0
21.305138 -16.198593 -5.2758675 0 255 0
20.626455 -15.7656 -3.4748516 0 255 0
20.767111 -15.670639 -3.0610726 0 255 0
22.217831 -15.883144 -4.2342396 0 255 0
22.005556 -16.038664 -4.8803082 0 255 0
22.054216 -16.020903 -4.8119245 0 255 0
21.051409 -15.476278 -2.2439969 0 255 0
20.835976 -15.624505 -2.8433759 0 255 0
22.192726 -15.718182 -3.4952586 0 255 0
22.427773 -15.561999 -2.9162416 0 255 0
21.353933 -15.334204 -1.6710813 0 255 0
21.780783 -15.218707 -1.2359911 0 255 0
21.836 -15.207144 -1.2008241 0 255 0
20.377199 -15.874969 -5.4654789 0 255 0
23.069571 -15.228043 -1.5097197 0 255 0
22.694143 -15.468472 -2.5894556 0 255 0
22.825554 -15.436944 -2.4329152 0 255 0
23.105217 -15.32305 -1.9108001 0 255 0
22.600496 -15.148232 -1.0892806 0 255 0
22.440212 -15.353405 -2.9869306 0 255 0
21.144527 -15.669757 -5.6421089 0 255 0
20.116009 -15.459824 -4.7058325 0 255 0
20.04645 -15.56329 -5.3620944 0 255 0
20.279318 -15.606194 -5.727685 0 255 0
20.810133 -15.653927 -5.7935319 0 255 0
21.463682 -15.56658 -5.4609623 0 255 0
20.382454 -15.300927 -4.1937156 0 255 0
20.647413 -15.153857 -3.6341887 0 255 0
20.917961 -15.556927 -5.8529572 0 255 0
22.98023 -14.903705 -1.8762958 0 255 0
21.876036 -15.389395 -4.9224672 0 255 0
21.045269 -14.858636 -2.3979909 0 255 0
20.818336 -15.027398 -3.0964489 0 255 0
20.8445 -15.006231 -3.006263 0 255 0
21.790844 -14.75628 -1.3533682 0 255 0
22.251488 -15.110653 -3.7334652 0 255 0
22.101097 -15.246243 -4.323184 0 255 0
21.341269 -14.711227 -1.8232763 0 255 0
21.798697 -14.59931 -1.3981588 0 255 0
22.757494 -14.791021 -2.5288949 0 255 0
22.464613 -14.956384 -3.1148415 0 255 0
22.508886 -14.547219 -1.3432533 0 255 0
22.898052 -14.643194 -1.8931693 0 255 0
22.884655 -14.69794 -2.1465912 0 255 0
19.897402 -14.96322 -5.492476 0 255 0
20.132591 -15.062054 -6.0931234 0 255 0
20.684517 -15.070553 -6.3031697 0 255 0
22.728289 -14.544396 -2.5699041 0 255 0
21.200422 -15.037954 -6.120286 0 255 0
20.061382 -14.821261 -4.8943748 0 255 0
20.375998 -14.675393 -4.3360324 0 255 0
21.793474 -14.763729 -4.9926195 0 255 0
21.622999 -14.91517 -5.638495 0 255 0
20.78153 -14.366089 -3.1068659 0 255 0
20.615456 -14.52803 -3.7422171 0 255 0
20.62516 -14.519671 -3.7081187 0 255 0
22.186592 -14.483257 -3.8314407 0 255 0
20.980261 -14.234467 -2.5295911 0 255 0
21.334312 -14.080768 -1.9470441 0 255 0
22.435781 -14.326168 -3.2466052 0 255 0
22.582411 -14.228867 -2.8956699 0 255 0
21.929319 -14.54887 -4.3813853 0 255 0
21.669065 -14.750924 -5.6885605 0 255 0
21.702303 -14.006292 -1.6515119 0 255 0
21.820333 -13.992913 -1.5982233 0 255 0
22.419497 -13.999347 -1.6070356 0 255 0
22.731178 -14.059088 -2.048018 0 255 0
22.676006 -14.159317 -2.63169 0 255 0
20.038805 -14.481976 -6.3256302 0 255 0
20.642443 -14.521297 -6.5710182 0 255 0
22.405376 -14.0647 -3.2833223 0 255 0
21.257887 -14.476589 -6.4013472 0 255 0
20.071938 -14.190329 -5.0280304 0 255 0
19.845675 -14.318673 -5.5778422 0 255 0
21.655691 -14.362829 -6.0811067 0 255 0
20.560408 -13.906213 -3.8759139 0 255 0
20.365776 -14.052951 -4.4786973 0 255 0
21.744497 -14.054028 -4.9199638 0 255 0
21.767071 -14.108231 -5.0985794 0 255 0
21.79973 -14.175189 -5.3135586 0 255 0
21.779898 -14.262536 -5.8730497 0 255 0
20.698229 -13.745303 -3.2342093 0 255 0
20.896025 -13.603699 -2.6513422 0 255 0
21.791964 -13.957574 -4.4642158 0 255 0
21.842175 -13.936956 -4.3321552 0 255 0
22.057186 -13.844793 -3.9168711 0 255 0
22.296831 -13.725772 -3.4786181 0 255 0
22.357954 -13.692089 -3.3536689 0 255 0
21.309063 -13.457699 -2.0727196 0 255 0
21.473488 -13.419006 -1.9545362 0 255 0
22.107002 -13.363345 -1.831404 0 255 0
22.529814 -13.431262 -2.1302681 0 255 0
20.568056 -14.187572 -6.6829762 0 255 0
22.583996 -13.544983 -2.7485135 0 255 0
22.295631 -13.315039 -1.9368963 0 255 0
19.997128 -13.886877 -6.5591741 0 255 0
19.963711 -13.883645 -6.5255194 0 255 0
19.793526 -13.699059 -5.7256756 0 255 0
20.030346 -13.566177 -5.1597691 0 255 0
20.544619 -13.898718 -6.7776556 0 255 0
21.235252 -13.835073 -6.5968933 0 255 0
21.799461 -13.705654 -6.0401974 0 255 0
20.467751 -13.294098 -4.0004749 0 255 0
20.501101 -13.256832 -3.8395576 0 255 0
20.290251 -13.432775 -4.5970168 0 255 0
19.943188 -13.698288 -6.5958991 0 255 0
20.546133 -13.801815 -6.7987609 0 255 0
21.626501 -13.463946 -5.1532383 0 255 0
21.782356 -13.592941 -5.532156 0 255 0
21.654156 -13.736273 -6.2881885 0 255 0
20.798534 -12.982925 -2.746351 0 255 0
20.600492 -13.133331 -3.3531923 0 255 0
20.45035 -13.207299 -4.0085034 0 255 0
20.231276 -13.662494 -6.7944965 0 255 0
21.616787 -13.342148 -4.5481114 0 255 0
21.955038 -13.219183 -4.019783 0 255 0
22.327999 -13.182165 -3.4779692 0 255 0
21.604855 -13.415564 -5.1480346 0 255 0
21.140123 -12.842657 -2.2433491 0 255 0
21.616335 -12.768623 -2.0025315 0 255 0
22.57065 -12.932831 -2.9116921 0 255 0
22.325615 -13.077218 -3.5059385 0 255 0
22.384527 -13.050286 -3.4047382 0 255 0
22.244911 -12.768118 -2.122447 0 255 0
22.578056 -12.851385 -2.9410715 0 255 0
20.172781 -12.985415 -4.648839 0 255 0
19.669506 -13.107891 -5.8741527 0 255 0
19.71866 -13.237997 -6.5519371 0 255 0
19.903677 -13.272326 -6.7783246 0 255 0
20.51873 -13.287774 -6.9388695 0 255 0
21.65498 -13.116201 -6.1348619 0 255 0
19.933052 -12.922112 -5.1315231 0 255 0
20.11042 -12.794506 -4.6577435 0 255 0
19.884329 -12.955417 -5.2540822 0 255 0
21.226244 -13.175253 -6.6751804 0 255 0
21.633959 -13.042126 -5.8613486 0 255 0
21.447706 -13.146984 -6.4876242 0 255 0
20.446547 -12.487497 -3.423806 0 255 0
20.291985 -12.622437 -4.028832 0 255 0
21.320486 -12.669968 -4.5602016 0 255 0
21.402822 -12.868313 -5.5194736 0 255 0
20.653479 -12.381958 -2.8191216 0 255 0
21.165401 -12.686554 -5.0424547 0 255 0
21.789968 -12.581619 -4.098021 0 255 0
22.198774 -12.480927 -3.7512634 0 255 0
22.299406 -12.459176 -3.6508338 0 255 0
20.940517 -12.194784 -2.3138845 0 255 0
19.577633 -12.754339 -5.8980293 0 255 0
21.643835 -12.104874 -2.0167427 0 255 0
22.262749 -12.162515 -2.2238882 0 255 0
21.087324 -12.538836 -5.0492454 0 255 0
22.649105 -12.23916 -2.7666814 0 255 0
22.615755 -12.332724 -3.1650224 0 255 0
21.515392 -12.802013 -6.145041 0 255 0
19.452232 -12.543435 -6.355854 0 255 0
19.475985 -12.572873 -6.5314283 0 255 0
19.828947 -12.665215 -7.0127158 0 255 0
21.16357 -12.342068 -4.5668464 0 255 0
20.435644 -12.670947 -7.1013083 0 255 0
20.558834 -12.654572 -7.0742025 0 255 0
22.227499 -12.126946 -3.7010908 0 255 0
19.678106 -12.283187 -5.2853136 0 255 0
19.497793 -12.450576 -5.9101601 0 255 0
21.310259 -12.407595 -6.1081052 0 255 0
21.136221 -12.548348 -6.7244453 0 255 0
19.881618 -12.142147 -4.6930647 0 255 0
20.095098 -12.000793 -4.0988231 0 255 0
20.916323 -12.148101 -5.1461101 0 255 0
21.174101 -12.333734 -5.7711601 0 255 0
20.470007 -11.737289 -2.8972273 0 255 0
20.287451 -11.861374 -3.5040116 0 255 0
21.642452 -11.634326 -1.9913485 0 255 0
21.034035 -12.026941 -4.5839815 0 255 0
21.320568 -11.951052 -4.2340555 0 255 0
22.279751 -11.607507 -2.260402 0 255 0
21.474302 -11.929693 -4.1166778 0 255 0
22.114199 -11.820578 -3.7224677 0 255 0
20.435041 -11.601974 -2.9121637 0 255 0
20.730827 -11.591195 -2.3504276 0 255 0
20.96137 -11.4944 -2.1258688 0 255 0
21.32501 -11.451541 -1.9810107 0 255 0
21.65205 -11.471218 -1.9838701 0 255 0
21.392092 -11.783892 -4.1292763 0 255 0
22.273458 -11.495294 -2.2612572 0 255 0
22.589245 -11.560159 -2.6637857 0 255 0
22.608467 -11.572311 -2.7156785 0 255 0
22.300692 -11.784122 -3.5796986 0 255 0
22.562532 -11.720687 -3.2641432 0 255 0
19.528509 -11.679409 -5.3789749 0 255 0
19.341543 -11.830926 -5.9994154 0 255 0
19.324392 -11.965637 -6.6612983 0 255 0
19.767397 -12.048798 -7.1745229 0 255 0
20.256853 -12.052999 -7.240335 0 255 0
21.075827 -11.828526 -6.1072121 0 255 0
22.455425 -11.353085 -3.2758033 0 255 0
20.626171 -12.003512 -7.1437736 0 255 0
21.016294 -11.926865 -6.8084083 0 255 0
19.76025 -11.523167 -4.7930965 0 255 0
20.763113 -11.554581 -5.2341757 0 255 0
20.788734 -11.590221 -5.3846855 0 255 0
21.060987 -11.754604 -6.1329074 0 255 0
20.207369 -11.203851 -3.4544022 0 255 0
20.173452 -11.249585 -3.624181 0 255 0
20.006996 -11.384701 -4.223835 0 255 0
20.860277 -11.399478 -4.6555991 0 255 0
20.311367 -11.068798 -2.9718368 0 255 0
20.559988 -10.937747 -2.4111791 0 255 0
19.222008 -11.648764 -6.7774763 0 255 0
21.197338 -11.276248 -4.1839252 0 255 0
21.588625 -11.193835 -3.8764739 0 255 0
21.786196 -11.160806 -3.7492015 0 255 0
22.339495 -11.059296 -3.2869749 0 255 0
21.042381 -10.818731 -2.0248532 0 255 0
21.070295 -10.815048 -2.01423 0 255 0
21.697004 -10.811813 -1.9870112 0 255 0
22.273001 -10.845386 -2.3252416 0 255 0
22.478767 -10.935763 -2.7291107 0 255 0
21.694567 -10.964758 -3.7705755 0 255 0
19.174582 -11.211343 -6.0696387 0 255 0
19.073412 -11.376257 -6.7564163 0 255 0
19.166048 -11.401098 -7.064672 0 255 0
19.751217 -11.450745 -7.3502522 0 255 0
20.009127 -11.424862 -7.3530064 0 255 0
20.471905 -11.396319 -7.2609587 0 255 0
20.944099 -11.347808 -6.9113235 0 255 0
19.425337 -11.050117 -5.4777551 0 255 0
19.710945 -10.894043 -4.9253759 0 255 0
20.931669 -11.095514 -6.1445622 0 255 0
20.99457 -11.156149 -6.3514252 0 255 0
19.947863 -10.767703 -4.3559971 0 255 0
20.793846 -10.792407 -4.7670674 0 255 0
20.679491 -10.941708 -5.347384 0 255 0
20.721478 -10.99086 -5.5779343 0 255 0
20.956945 -11.006985 -6.2970953 0 255 0
20.188292 -10.446003 -3.066865 0 255 0
20.072746 -10.594921 -3.7354875 0 255 0
21.109194 -10.668405 -4.2580414 0 255 0
21.58441 -10.535208 -3.8003242 0 255 0
21.688429 -10.511559 -3.7136817 0 255 0
20.43115 -10.309031 -2.5006998 0 255 0
20.993181 -10.193371 -2.0580716 0 255 0
19.015337 -10.990536 -7.410521 0 255 0
22.25378 -10.208766 -2.4160128 0 255 0
22.099714 -10.42732 -3.3232157 0 255 0
22.332918 -10.282272 -2.7506959 0 255 0
21.751137 -10.134427 -2.0241067 0 255 0
18.668438 -10.696969 -6.6668062 0 255 0
18.97184 -10.636892 -6.0853453 0 255 0
18.859922 -10.84927 -7.4392138 0 255 0
18.956709 -10.824624 -7.5277071 0 255 0
19.410826 -10.841952 -7.5544119 0 255 0
19.889763 -10.791464 -7.4060612 0 255 0
20.478804 -10.751068 -7.1602836 0 255 0
20.773436 -10.77236 -6.9595356 0 255 0
18.93482 -10.54134 -6.0891833 0 255 0
19.157803 -10.452114 -5.7251129 0 255 0
19.264452 -10.409332 -5.5548239 0 255 0
19.900505 -10.757275 -7.4009986 0 255 0
20.854774 -10.557727 -6.3951058 0 255 0
19.245047 -10.343554 -5.5613637 0 255 0
19.819622 -10.144087 -4.4457803 0 255 0
19.875135 -10.086375 -4.225225 0 255 0
20.944414 -9.7580118 -2.0765672 0 255 0
19.586245 -10.280598 -5.0154591 0 255 0
20.763571 -10.181961 -4.882843 0 255 0
20.652773 -10.309285 -5.4390864 0 255 0
20.687613 -10.369839 -5.7297225 0 255 0
20.077772 -9.8334455 -3.1756072 0 255 0
19.952162 -9.9838161 -3.8146324 0 255 0
21.052916 -10.046786 -4.3670917 0 255 0
20.598944 -10.493029 -6.9466667 0 255 0
20.31912 -9.6794081 -2.6038661 0 255 0
20.852062 -9.5675163 -2.1075735 0 255 0
19.770475 -9.9760113 -4.4583168 0 255 0
20.952105 -9.5664091 -2.0615857 0 255 0
21.46623 -9.913826 -3.8784811 0 255 0
21.850777 -9.801199 -3.4877131 0 255 0
21.926842 -9.7795258 -3.4007349 0 255 0
18.331373 -10.318835 -7.3673439 0 255 0
21.788839 -9.4672785 -2.0295353 0 255 0
22.207739 -9.5496559 -2.4469907 0 255 0
22.225668 -9.6559095 -2.8617775 0 255 0
18.328337 -10.07299 -6.6483798 0 255 0
18.232214 -10.206872 -7.3049746 0 255 0
18.307375 -10.24375 -7.4568954 0 255 0
18.81089 -10.244264 -7.7908044 0 255 0
21.796776 -9.3402977 -2.0265534 0 255 0
19.313545 -10.240664 -7.6640325 0 255 0
21.898581 -9.6422806 -3.4227667 0 255 0
18.690884 -9.9128761 -6.121973 0 255 0
19.427895 -9.795742 -5.0540299 0 255 0
19.662931 -10.111718 -7.3761725 0 255 0
20.209785 -10.03289 -6.9166431 0 255 0
19.060965 -9.759901 -5.6153693 0 255 0
20.627834 -9.6888847 -5.6337395 0 255 0
20.127424 -9.9321957 -6.913456 0 255 0
20.627205 -9.7455378 -5.8475251 0 255 0
20.239086 -9.9300413 -6.8283529 0 255 0
20.580788 -9.9002037 -6.3779068 0 255 0
19.802614 -9.3409653 -3.8849392 0 255 0
19.608086 -9.4969082 -4.4883437 0 255 0
20.696342 -9.5508194 -5.0087156 0 255 0
20.957594 -9.4256449 -4.4532623 0 255 0
19.996767 -9.2049904 -3.2927444 0 255 0
20.22636 -9.050395 -2.7109389 0 255 0
21.351931 -9.2877312 -3.965343 0 255 0
20.570547 -8.9136276 -2.2044065 0 255 0
21.122066 -8.8589277 -1.9123932 0 255 0
21.458035 -8.8217678 -1.894803 0 255 0
21.8342 -8.8254833 -2.0223207 0 255 0
22.101692 -8.8673916 -2.2842679 0 255 0
21.814583 -9.1526375 -3.5084524 0 255 0
22.209469 -8.9389677 -2.6066065 0 255 0
22.038521 -9.082428 -3.2208056 0 255 0
22.165295 -9.0222273 -2.9583864 0 255 0
17.798378 -9.5573759 -7.2095108 0 255 0
18.164694 -9.6498289 -7.8535571 0 255 0
18.857973 -9.6327143 -7.8476715 0 255 0
17.777632 -9.5331306 -7.255188 0 255 0
17.778486 -9.5226774 -7.2076659 0 255 0
17.99189 -9.4317589 -6.7095981 0 255 0
18.022676 -9.3923016 -6.6513329 0 255 0
18.49666 -9.3149757 -6.1625323 0 255 0
18.912136 -9.5297985 -7.8108339 0 255 0
18.958202 -9.6163387 -7.794652 0 255 0
19.363106 -9.4732723 -7.3968878 0 255 0
20.579567 -9.2956829 -5.792594 0 255 0
19.136177 -9.0162659 -5.0984545 0 255 0
18.866156 -9.1454296 -5.6664815 0 255 0
21.215054 -8.5650663 -1.8518111 0 255 0
19.794802 -9.322978 -6.9009695 0 255 0
20.549633 -9.1242065 -5.8481865 0 255 0
20.315895 -9.2461376 -6.4411964 0 255 0
20.347191 -9.2472076 -6.4026775 0 255 0
19.391211 -8.8510265 -4.5392175 0 255 0
19.298702 -9.3516445 -7.4216962 0 255 0
20.563673 -8.9077311 -5.0969319 0 255 0
20.556789 -9.0910454 -5.7395248 0 255 0
19.701662 -8.7153759 -3.9944775 0 255 0
19.982353 -8.5828943 -3.4505937 0 255 0
20.753332 -8.7673454 -4.5348263 0 255 0
21.205202 -8.652833 -4.0671277 0 255 0
20.300514 -9.0827141 -6.4187183 0 255 0
20.171017 -8.4411249 -2.8342485 0 255 0
20.404722 -8.287631 -2.2530005 0 255 0
20.730825 -8.7067728 -4.5422959 0 255 0
20.522747 -8.7473507 -5.0939255 0 255 0
21.739836 -8.5325251 -3.6206713 0 255 0
21.881538 -8.4930325 -3.4649336 0 255 0
22.102196 -8.401165 -3.0969276 0 255 0
20.929634 -8.1621151 -1.8315206 0 255 0
21.286505 -8.1367855 -1.7924608 0 255 0
21.868887 -8.1768417 -2.0490265 0 255 0
22.117987 -8.2436295 -2.4119928 0 255 0
22.172567 -8.3310089 -2.8031461 0 255 0
17.517748 -8.8332024 -7.1867752 0 255 0
18.141207 -8.7145491 -6.3619323 0 255 0
17.567848 -9.0006113 -7.7145286 0 255 0
18.289419 -8.6857262 -6.2162099 0 255 0
18.073519 -9.0521069 -8.0767813 0 255 0
18.780087 -8.9817009 -7.8332672 0 255 0
17.805834 -8.7308559 -6.6932817 0 255 0
18.667955 -8.5576048 -5.7067313 0 255 0
19.119631 -8.8386183 -7.4613318 0 255 0
19.515356 -8.7233591 -7.0212874 0 255 0
19.60313 -8.7075424 -6.945899 0 255 0
20.181662 -8.6113749 -6.4725423 0 255 0
20.444012 -8.5960083 -5.9203167 0 255 0
18.885994 -8.3449631 -5.1550622 0 255 0
18.90938 -8.3920774 -5.1456552 0 255 0
20.31216 -7.9195604 -2.2940786 0 255 0
19.225151 -8.242465 -4.621706 0 255 0
20.419191 -8.4902658 -5.9237018 0 255 0
18.197847 -8.430975 -6.237607 0 255 0
19.215212 -8.2091789 -4.6289086 0 255 0
19.693037 -8.0990095 -4.1306977 0 255 0
19.988094 -7.9852495 -3.6678338 0 255 0
20.551949 -8.1186409 -4.6000404 0 255 0
20.378637 -8.2210045 -5.126039 0 255 0
20.384947 -8.3058653 -5.3778782 0 255 0
20.246431 -7.657608 -2.327668 0 255 0
20.180403 -7.7130022 -2.526895 0 255 0
20.116207 -7.8431687 -2.9976141 0 255 0
20.874071 -8.0506935 -4.2944617 0 255 0
21.06893 -8.0214653 -4.172081 0 255 0
21.681774 -7.9108124 -3.7356021 0 255 0
21.760611 -7.8909941 -3.6540396 0 255 0
18.475527 -8.1136303 -5.7219043 0 255 0
20.615623 -7.5064592 -1.8587086 0 255 0
21.342079 -7.4720869 -1.7681913 0 255 0
21.870565 -7.5353041 -2.1277325 0 255 0
22.069281 -7.6118178 -2.5141137 0 255 0
22.031643 -7.7779222 -3.2214968 0 255 0
22.060085 -7.7554598 -3.1359551 0 255 0
17.393454 -8.2675028 -7.336349 0 255 0
17.634697 -8.1517773 -6.7701235 0 255 0
17.498257 -8.3943291 -7.954227 0 255 0
20.612591 -7.4351792 -1.862413 0 255 0
18.029585 -8.4350815 -8.2347155 0 255 0
18.599188 -8.3509426 -7.9356394 0 255 0
22.014158 -7.6513276 -3.2404292 0 255 0
18.039034 -8.0506516 -6.2585368 0 255 0
18.375242 -7.9189911 -5.7198768 0 255 0
18.944942 -8.2106628 -7.5168319 0 255 0
19.434996 -8.0959244 -7.021759 0 255 0
18.60516 -7.7130065 -5.1589942 0 255 0
20.022936 -7.9981947 -6.531908 0 255 0
20.247393 -7.8549395 -5.9903321 0 255 0
19.045773 -7.5875597 -4.6796021 0 255 0
19.163933 -7.578598 -4.6027651 0 255 0
19.694033 -7.5205431 -4.2438502 0 255 0
19.962191 -7.4093428 -3.816834 0 255 0
20.243649 -7.6249008 -5.2364497 0 255 0
19.427389 -7.9009447 -7.0110922 0 255 0
20.239361 -7.7178102 -5.585227 0 255 0
20.007687 -7.1587281 -2.9441333 0 255 0
20.011221 -7.194191 -3.0805449 0 255 0
20.441277 -7.5155334 -4.6850281 0 255 0
20.71549 -7.4595308 -4.4494896 0 255 0
21.054449 -7.4071455 -4.2565684 0 255 0
20.093813 -7.0246401 -2.4094102 0 255 0
20.480154 -6.8930526 -1.923113 0 255 0
21.601482 -7.284462 -3.8532252 0 255 0
21.927315 -7.1387148 -3.3151245 0 255 0
17.429934 -7.5598783 -6.8491149 0 255 0
17.291389 -7.7113523 -7.5276337 0 255 0
17.409721 -7.8119798 -8.1268024 0 255 0
20.645794 -6.8667555 -1.8389348 0 255 0
17.976997 -7.8234024 -8.4657688 0 255 0
21.338564 -6.8393631 -1.8514894 0 255 0
21.831551 -6.9151764 -2.2852502 0 255 0
21.964941 -6.9792757 -2.6180146 0 255 0
17.633003 -7.3771849 -6.320735 0 255 0
19.955603 -6.9585114 -3.1008997 0 255 0
18.492851 -7.7287307 -8.066802 0 255 0
18.785955 -7.5859742 -7.6191821 0 255 0
17.669222 -7.3534532 -6.2400141 0 255 0
17.942867 -7.2281799 -5.6742253 0 255 0
19.260786 -7.4356508 -7.0971494 0 255 0
19.476599 -7.4249725 -6.9250355 0 255 0
19.824724 -7.3699508 -6.5920477 0 255 0
17.331236 -7.2793427 -6.8414874 0 255 0
18.222792 -7.0691481 -5.1190982 0 255 0
18.470358 -6.9666319 -4.8384719 0 255 0
18.718153 -6.9328628 -4.6934657 0 255 0
19.201632 -6.9279237 -4.5062428 0 255 0
17.333071 -7.5047865 -8.3114719 0 255 0
19.570045 -6.9387026 -4.3094907 0 255 0
20.049156 -7.2108064 -6.0394459 0 255 0
19.851967 -6.6043868 -3.3609452 0 255 0
19.819693 -6.7489347 -3.8395009 0 255 0
20.114916 -7.0038438 -5.3426309 0 255 0
20.364088 -6.8896456 -4.8121223 0 255 0
20.678381 -6.8329697 -4.5657759 0 255 0
20.98229 -6.7807436 -4.3803635 0 255 0
18.601118 -6.7887392 -4.7038412 0 255 0
19.972975 -6.3959169 -2.5053668 0 255 0
19.849188 -6.5490341 -3.1425452 0 255 0
21.487347 -6.6538086 -3.9562805 0 255 0
21.779263 -6.5057206 -3.3966942 0 255 0
17.171623 -7.1897826 -8.2710524 0 255 0
20.421057 -6.269681 -2.0403821 0 255 0
20.514563 -6.2543869 -2.0007648 0 255 0
17.26762 -7.2284179 -8.5703707 0 255 0
20.609175 -6.2457609 -1.9714255 0 255 0
21.276836 -6.2357664 -2.0500388 0 255 0
19.94207 -6.8929887 -6.0523238 0 255 0
21.740776 -6.3219423 -2.5566583 0 255 0
21.789427 -6.3490906 -2.6981223 0 255 0
17.127178 -6.9792376 -7.3049235 0 255 0
17.116375 -7.045433 -7.5603638 0 255 0
17.721483 -7.2525206 -8.9127684 0 255 0
18.218346 -7.1859636 -8.6290693 0 255 0
