ply
format ascii 1.0
comment Author: CloudCompare (TELECOM PARISTECH/EDF R&D)
obj_info Generated by CloudCompare!
element vertex 1347
property float x
property float y
property float z
property uchar red
property uchar green
property uchar blue
end_header
-253.957 -155.978 -115.621 0 255 0 
-236.068 -151.623 -138.133 0 255 0 
-242.43 -156.392 -98.709 0 255 0 
-242.235 -153.944 -109.656 0 255 0 
-241.752 -154.862 -105.912 0 255 0 
-243.787 -156.5 -96.2034 0 255 0 
-249.371 -156.6 -94.8467 0 255 0 
-250.785 -156.506 -95.4507 0 255 0 
-254.291 -155.18 -100.246 0 255 0 
-243.17 -151.394 -119.505 0 255 0 
-242.653 -153.148 -112.546 0 255 0 
-254.216 -150.584 -129.036 0 255 0 
-252.857 -151.752 -115.202 0 255 0 
-253.096 -152.242 -112.712 0 255 0 
-254.048 -153.482 -107.554 0 255 0 
-254.548 -154.747 -101.985 0 255 0 
-237.663 -146.784 -140.802 0 255 0 
-237.301 -147.744 -136.403 0 255 0 
-239.344 -148.743 -131.04 0 255 0 
-241.665 -149.675 -126.43 0 255 0 
-242.637 -150.347 -123.552 0 255 0 
-253.89 -148.655 -128.753 0 255 0 
-252.935 -150.412 -121.904 0 255 0 
-253.835 -153.818 -100.152 0 255 0 
-238.967 -146.209 -143.187 0 255 0 
-247.212 -145.215 -145.857 0 255 0 
-251.458 -145.709 -143.214 0 255 0 
-252.539 -146.03 -141.743 0 255 0 
-254.357 -147.461 -134.908 0 255 0 
-240.733 -152.061 -105.833 0 255 0 
-247.596 -144.794 -145.574 0 255 0 
-239.528 -150.564 -98.2411 0 255 0 
-249.975 -151.23 -94.3019 0 255 0 
-239.142 -148.391 -106.068 0 255 0 
-239.057 -149.569 -101.63 0 255 0 
-242.062 -150.913 -92.1192 0 255 0 
-241.762 -145.201 -118.721 0 255 0 
-240.423 -146.715 -112.526 0 255 0 
-241.587 -149.791 -91.0075 0 255 0 
-251.156 -146.838 -108.108 0 255 0 
-251.502 -148.591 -100.18 0 255 0 
-237.73 -141.792 -134.396 0 255 0 
-238.978 -142.551 -130.961 0 255 0 
-241.205 -143.732 -125.34 0 255 0 
-241.872 -144.639 -121.475 0 255 0 
-251.817 -143.999 -121.04 0 255 0 
-251.305 -145.689 -114.171 0 255 0 
-250.892 -146.29 -107.534 0 255 0 
-238.716 -140.104 -141.388 0 255 0 
-251.844 -139.968 -139.665 0 255 0 
-253.395 -141.241 -133.711 0 255 0 
-252.888 -142.473 -127.572 0 255 0 
-252.222 -143.314 -123.739 0 255 0 
-238.577 -139.265 -141.248 0 255 0 
-247.019 -139.121 -143.725 0 255 0 
-237.033 -145.958 -98.3121 0 255 0 
-240.639 -142.089 -118.363 0 255 0 
-236.429 -142.998 -106.704 0 255 0 
-236.312 -144.791 -97.5557 0 255 0 
-236.351 -145.468 -91.6639 0 255 0 
-239.28 -145.694 -85.9344 0 255 0 
-248.82 -143.019 -100.671 0 255 0 
-246.168 -145.031 -87.5216 0 255 0 
-248.624 -144.106 -93.0598 0 255 0 
-237.503 -140.544 -112.376 0 255 0 
-235.414 -140.972 -106.846 0 255 0 
-235.182 -141.759 -102.909 0 255 0 
-234.764 -143.352 -91.9237 0 255 0 
-248.328 -141.891 -100.699 0 255 0 
-248.425 -142.246 -99.1426 0 255 0 
-238.266 -136.997 -128.225 0 255 0 
-239.407 -137.739 -124.637 0 255 0 
-239.49 -139.069 -118.191 0 255 0 
-249.512 -139.367 -113.493 0 255 0 
-248.616 -140.725 -107.129 0 255 0 
-246.49 -143.619 -86.8437 0 255 0 
-236.771 -133.663 -140.633 0 255 0 
-235.736 -135.173 -134.85 0 255 0 
-239.416 -133.331 -142.692 0 255 0 
-235.924 -135.41 -134.112 0 255 0 
-251.868 -136.337 -126.293 0 255 0 
-251.041 -137.356 -121.71 0 255 0 
-250.686 -137.802 -119.956 0 255 0 
-235.463 -134.404 -134.2 0 255 0 
-246.629 -133.03 -141.964 0 255 0 
-251.145 -134.037 -136.423 0 255 0 
-251.96 -134.71 -133.34 0 255 0 
-245.283 -140.054 -82.5178 0 255 0 
-247.222 -139.323 -85.19 0 255 0 
-237.127 -132.058 -124.59 0 255 0 
-232.614 -136.625 -100.784 0 255 0 
-249.791 -133.641 -119.443 0 255 0 
-246.549 -136.708 -95.8447 0 255 0 
-247.435 -137.639 -92.4723 0 255 0 
-247.887 -138.644 -87.9847 0 255 0 
-236.934 -131.387 -124.096 0 255 0 
-236.792 -131.27 -124.58 0 255 0 
-237.187 -132.835 -117.605 0 255 0 
-232.843 -134.775 -106.537 0 255 0 
-235.071 -133.755 -112.165 0 255 0 
-246.354 -134.346 -106.692 0 255 0 
-245.936 -135.782 -100.155 0 255 0 
-232.405 -128.703 -134.477 0 255 0 
-233.859 -129.721 -130.615 0 255 0 
-250.607 -130.112 -125.259 0 255 0 
-247.487 -132.586 -113.043 0 255 0 
-247.814 -132.595 -114.022 0 255 0 
-233.628 -127.234 -140.646 0 255 0 
-240.513 -126.47 -143.272 0 255 0 
-246.239 -126.872 -140.238 0 255 0 
-250.102 -128.181 -132.981 0 255 0 
-243.782 -136.127 -78.6247 0 255 0 
-244.403 -134.441 -78.148 0 255 0 
-232.197 -124.348 -140.785 0 255 0 
-245.142 -131.114 -92.0624 0 255 0 
-247.251 -132.505 -86.3978 0 255 0 
-247.36 -133.125 -83.5297 0 255 0 
-240.791 -122.597 -143.251 0 255 0 
-233.975 -125.108 -124.119 0 255 0 
-235.205 -125.828 -119.962 0 255 0 
-235.269 -126.319 -117.074 0 255 0 
-233.573 -127.6 -111.205 0 255 0 
-231.282 -128.966 -105.437 0 255 0 
-244.311 -127.788 -107.146 0 255 0 
-243.458 -129.672 -99.4839 0 255 0 
-244.709 -130.87 -93.0476 0 255 0 
-229.388 -123.377 -134.621 0 255 0 
-232.198 -124.172 -127.002 0 255 0 
-247.824 -125.199 -118.217 0 255 0 
-245.694 -126.33 -112.399 0 255 0 
-243.809 -127.105 -106.139 0 255 0 
-244.283 -129.609 -92.1723 0 255 0 
-230.467 -120.918 -140.777 0 255 0 
-229.006 -122.542 -133.292 0 255 0 
-228.838 -122.385 -134.621 0 255 0 
-234.11 -120.058 -143.436 0 255 0 
-248.463 -122.059 -131.916 0 255 0 
-248.797 -122.416 -130.274 0 255 0 
-249.14 -123.778 -124.471 0 255 0 
-237.903 -119.833 -143.9 0 255 0 
-240.89 -119.908 -143.098 0 255 0 
-243.705 -120.205 -141.196 0 255 0 
-245.849 -120.688 -138.553 0 255 0 
-231.324 -121.207 -125.115 0 255 0 
-233.874 -122.266 -116.583 0 255 0 
-241.004 -124.51 -99.6851 0 255 0 
-246.167 -126.678 -83.5248 0 255 0 
-246.452 -126.936 -82.2656 0 255 0 
-244.93 -128.304 -76.2887 0 255 0 
-232.218 -121.436 -110.036 0 255 0 
-240.195 -122.822 -99.7303 0 255 0 
-240.072 -123.364 -97.5564 0 255 0 
-240.421 -123.866 -93.3027 0 255 0 
-243.162 -125.21 -88.5218 0 255 0 
-230.554 -118.591 -123.399 0 255 0 
-233.033 -120.139 -116.337 0 255 0 
-233.031 -120.462 -114.396 0 255 0 
-244.075 -120.18 -111.535 0 255 0 
-246.393 -119.027 -117.3 0 255 0 
-241.628 -121.209 -105.85 0 255 0 
-227.834 -114.503 -140.443 0 255 0 
-225.739 -116.082 -134.54 0 255 0 
-227.151 -117.086 -128.694 0 255 0 
-234.715 -113.943 -143.771 0 255 0 
-228.249 -117.455 -126.723 0 255 0 
-247.3 -116.799 -126.126 0 255 0 
-247.392 -117.423 -123.811 0 255 0 
-245.732 -123.666 -81.8825 0 255 0 
-231.79 -113.362 -143.149 0 255 0 
-234.711 -113.467 -143.71 0 255 0 
-240.742 -113.609 -141.952 0 255 0 
-243.047 -113.989 -139.846 0 255 0 
-245.052 -114.666 -136.546 0 255 0 
-246.621 -115.709 -131.293 0 255 0 
-238.803 -121.158 -93.4065 0 255 0 
-230.934 -116.751 -109.514 0 255 0 
-245.534 -120.834 -80.1823 0 255 0 
-226.041 -113.485 -126.544 0 255 0 
-246.064 -113.412 -123.576 0 255 0 
-237.153 -117.849 -92.9459 0 255 0 
-242.36 -119.454 -85.3247 0 255 0 
-244.972 -120.444 -81.9009 0 255 0 
-234.464 -109.454 -142.767 0 255 0 
-229.003 -112.939 -119.341 0 255 0 
-230.069 -113.584 -116.376 0 255 0 
-230.213 -115.44 -107.536 0 255 0 
-230.376 -115.047 -109.407 0 255 0 
-237.15 -116.465 -99.4785 0 255 0 
-223.513 -109.65 -134.122 0 255 0 
-225.043 -111.377 -126.302 0 255 0 
-225.45 -111.523 -125.496 0 255 0 
-240.065 -108.735 -139.983 0 255 0 
-245.155 -111.418 -121.631 0 255 0 
-239.123 -114.798 -105.101 0 255 0 
-242.152 -113.923 -110.899 0 255 0 
-244.483 -112.683 -116.701 0 255 0 
-226.456 -108.255 -139.487 0 255 0 
-234.164 -107.411 -141.978 0 255 0 
-239.841 -107.71 -139.416 0 255 0 
-243.69 -108.957 -132.79 0 255 0 
-244.082 -109.205 -131.136 0 255 0 
-245.125 -110.9 -123.524 0 255 0 
-243.121 -107.24 -131.079 0 255 0 
-227.7 -108.438 -116.276 0 255 0 
-234.36 -111.61 -99.5244 0 255 0 
-241.434 -113.472 -83.9662 0 255 0 
-245.226 -114.223 -79.6952 0 255 0 
-222.685 -105.325 -133.493 0 255 0 
-227.11 -107.184 -116.267 0 255 0 
-227.373 -107.349 -115.536 0 255 0 
-242.695 -107.776 -116.435 0 255 0 
-222.121 -103.606 -131.994 0 255 0 
-222.423 -105.08 -125.856 0 255 0 
-229.963 -102.874 -139.336 0 255 0 
-223.936 -105.818 -122.362 0 255 0 
-242.074 -106.195 -116.379 0 255 0 
-236.785 -108.754 -104.721 0 255 0 
-239.944 -107.647 -110.451 0 255 0 
-222.502 -103.344 -133.085 0 255 0 
-224.585 -102.608 -136.113 0 255 0 
-226.715 -102.224 -137.667 0 255 0 
-232.744 -101.694 -138.534 0 255 0 
-238.157 -102.118 -135.232 0 255 0 
-240.536 -102.925 -131.105 0 255 0 
-241.566 -103.591 -127.551 0 255 0 
-242.268 -104.473 -123.392 0 255 0 
-244.083 -108.069 -80.0693 0 255 0 
-245.524 -108.671 -76.7265 0 255 0 
-222.636 -98.7078 -131.795 0 255 0 
-236.871 -99.0167 -132.15 0 255 0 
-230.974 -97.1619 -134.501 0 255 0 
-239.555 -99.6288 -123.367 0 255 0 
-234.572 -102.538 -104.409 0 255 0 
-237.632 -101.282 -110.053 0 255 0 
-222.868 -97.2481 -131.291 0 255 0 
-230.589 -96.2756 -133.63 0 255 0 
-238.616 -98.167 -123.525 0 255 0 
-238.963 -98.5015 -121.771 0 255 0 
-239.253 -99.6821 -116.283 0 255 0 
-235.836 -96.7436 -129.66 0 255 0 
-233.9 -92.5414 -125.005 0 255 0 
-236.534 -93.9823 -116.229 0 255 0 
-225.907 -91.0242 -128.37 0 255 0 
-236.199 -93.2665 -116.276 0 255 0 
-236.261 -93.4573 -115.572 0 255 0 
-235.298 -94.845 -109.666 0 255 0 
-228.121 -90.8975 -128.144 0 255 0 
-232.5 -91.2971 -125.26 0 255 0 
-233.438 -91.4973 -123.978 0 255 0 
-227.717 -89.7119 -126.986 0 255 0 
-212.96 -98.8145 -70.0095 0 255 0 
-213.704 -98.9354 -69.6565 0 255 0 
-208.946 -95.9345 -79.4131 0 255 0 
-208.09 -96.9574 -73.0557 0 255 0 
-208.413 -97.2 -73.8356 0 255 0 
-208.725 -97.4116 -72.8046 0 255 0 
-226.346 -85.7307 -123.573 0 255 0 
-233.237 -88.6286 -109.096 0 255 0 
-233.39 -88.4805 -109.72 0 255 0 
-231.498 -86.0644 -119.166 0 255 0 
-232.739 -86.592 -116.695 0 255 0 
-215.61 -94.6249 -60.7031 0 255 0 
-217.298 -95.4302 -58.1385 0 255 0 
-218.654 -96.0576 -51.8825 0 255 0 
-204.223 -91.6317 -73.1333 0 255 0 
-205.531 -93.1731 -66.891 0 255 0 
-210.251 -93.5163 -63.3959 0 255 0 
-232.633 -86.8663 -108.844 0 255 0 
-210.3 -93.4101 -63.2978 0 255 0 
-218.486 -95.8513 -51.6807 0 255 0 
-222.593 -95.4771 -48.3729 0 255 0 
-206.129 -89.8823 -79.2178 0 255 0 
-204.771 -92.3074 -66.666 0 255 0 
-205.079 -92.2409 -65.99 0 255 0 
-230.414 -82.8917 -116.798 0 255 0 
-214.687 -92.2261 -58.7589 0 255 0 
-215.744 -93.3291 -45.7947 0 255 0 
-230.988 -82.6692 -108.435 0 255 0 
-212.674 -92.9127 -39.6448 0 255 0 
-227.54 -80.0629 -117.803 0 255 0 
-229.621 -80.7691 -115.16 0 255 0 
-208.616 -88.4881 -60.5304 0 255 0 
-213.801 -89.3797 -57.0887 0 255 0 
-214.431 -89.8863 -52.0932 0 255 0 
-212.936 -91.2454 -46.305 0 255 0 
-211.222 -92.4632 -40.255 0 255 0 
-211.76 -92.8517 -37.7668 0 255 0 
-202.34 -86.5528 -72.0842 0 255 0 
-200.429 -86.9295 -66.3648 0 255 0 
-209.802 -92.3472 -33.8018 0 255 0 
-216.581 -91.9857 -37.6088 0 255 0 
-220.768 -90.9168 -42.5752 0 255 0 
-223.72 -89.7702 -47.9742 0 255 0 
-204.73 -84.1521 -78.32 0 255 0 
-202.898 -86.9911 -61.6918 0 255 0 
-205.686 -82.9338 -81.845 0 255 0 
-206.368 -82.2767 -84.4983 0 255 0 
-198.038 -83.4606 -66.8666 0 255 0 
-206.295 -88.2052 -41.7269 0 255 0 
-203.96 -89.1168 -35.8877 0 255 0 
-206.98 -89.5915 -27.9201 0 255 0 
-196.253 -82.8527 -61.36 0 255 0 
-207.497 -83.2166 -58.0564 0 255 0 
-202.457 -87.0631 -36.0121 0 255 0 
-204.82 -85.8003 -41.8961 0 255 0 
-208.86 -84.927 -47.0576 0 255 0 
-211.686 -84.0371 -51.8933 0 255 0 
-212 -83.9573 -53.4421 0 255 0 
-202.297 -87.586 -31.8844 0 255 0 
-202.849 -87.6992 -29.5389 0 255 0 
-206.29 -88.2522 -26.3855 0 255 0 
-208.284 -88.6236 -26.4053 0 255 0 
-214.719 -88.0793 -29.8265 0 255 0 
-218.234 -86.6875 -35.2411 0 255 0 
-200.19 -79.6889 -72.1599 0 255 0 
-200.176 -82.097 -58.0969 0 255 0 
-211.435 -83.4842 -51.934 0 255 0 
-220.859 -83.4443 -47.7815 0 255 0 
-220.253 -84.9741 -41.3537 0 255 0 
-196.053 -79.5991 -67.2252 0 255 0 
-193.905 -80.7832 -61.6502 0 255 0 
-199.962 -78.978 -72.1758 0 255 0 
-202.673 -78.0949 -77.8969 0 255 0 
-194.85 -80.7584 -58.1783 0 255 0 
-203.413 -75.5985 -84.4226 0 255 0 
-200.072 -79.8236 -56.0628 0 255 0 
-202.988 -73.0093 -88.1061 0 255 0 
-200.089 -82.4781 -28.233 0 255 0 
-218.81 -78.9901 -50.8993 0 255 0 
-210.308 -83.1367 -23.1071 0 255 0 
-193.466 -78.0703 -55.2343 0 255 0 
-201.005 -77.842 -54.363 0 255 0 
-202.571 -79.2962 -41.3535 0 255 0 
-200.043 -80.782 -35.5317 0 255 0 
-204.717 -82.9914 -22.5467 0 255 0 
-218.382 -79.0087 -48.1868 0 255 0 
-214.95 -81.7386 -28.1077 0 255 0 
-205.659 -77.3641 -52.8218 0 255 0 
-205.747 -77.7338 -46.8232 0 255 0 
-217.626 -77.6734 -47.9882 0 255 0 
-216.692 -79.9022 -34.749 0 255 0 
-200.784 -71.1994 -84.5939 0 255 0 
-190.619 -74.9056 -61.4374 0 255 0 
-193.915 -73.748 -66.6488 0 255 0 
-190.421 -75.6992 -55.4464 0 255 0 
-192.596 -75.6668 -53.1263 0 255 0 
-195.53 -76.136 -52.8437 0 255 0 
-199.347 -79.7424 -27.345 0 255 0 
-219.309 -75.4165 -54.0162 0 255 0 
-217.295 -77.0623 -47.9474 0 255 0 
-217.272 -77.1826 -47.242 0 255 0 
-217.2 -78.1618 -41.4881 0 255 0 
-199.471 -70.0284 -81.3978 0 255 0 
-199.324 -70.8364 -77.9076 0 255 0 
-197.597 -72.2401 -71.769 0 255 0 
-200.402 -67.5878 -91.3902 0 255 0 
-199.376 -68.9186 -84.9407 0 255 0 
-210.394 -71.0068 -74.7414 0 255 0 
-211.122 -71.2442 -73.2208 0 255 0 
-196.887 -72.0415 -49.184 0 255 0 
-202.286 -72.9267 -46.5604 0 255 0 
-202.455 -73.0324 -45.495 0 255 0 
-201.09 -73.5201 -40.0368 0 255 0 
-198.947 -74.7546 -34.1392 0 255 0 
-198.381 -76.2441 -27.0623 0 255 0 
-198.884 -76.5771 -25.0588 0 255 0 
-203.768 -77.2282 -20.0455 0 255 0 
-214.602 -73.4209 -41.1261 0 255 0 
-210.853 -76.5843 -21.9659 0 255 0 
-188.629 -69.5057 -60.37 0 255 0 
-192.046 -68.9065 -65.9581 0 255 0 
-197.465 -67.0595 -77.8539 0 255 0 
-196.401 -71.4851 -48.7604 0 255 0 
-201.61 -72.115 -45.4069 0 255 0 
-214.072 -73.3276 -34.463 0 255 0 
-213.618 -75.1372 -27.3454 0 255 0 
-187.814 -69.7058 -54.9387 0 255 0 
-195.37 -67.1389 -71.4454 0 255 0 
-191.328 -70.3664 -49.6702 0 255 0 
-214.255 -70.4311 -48.024 0 255 0 
-213.976 -72.1848 -41.0696 0 255 0 
-213.983 -72.4792 -39.1194 0 255 0 
-199.514 -61.5688 -97.3993 0 255 0 
-197.657 -62.8937 -91.5065 0 255 0 
-188.052 -67.714 -60.3714 0 255 0 
-196.377 -65.2161 -77.0194 0 255 0 
-217.315 -68.5608 -53.3914 0 255 0 
-198.938 -60.5483 -97.4533 0 255 0 
-196.924 -61.4715 -91.4752 0 255 0 
-196.326 -62.0221 -88.2078 0 255 0 
-196.068 -62.6302 -85.0259 0 255 0 
-190.254 -65.6519 -66.1896 0 255 0 
-207.078 -63.3741 -80.0664 0 255 0 
-207.042 -63.2736 -80.3857 0 255 0 
-209.921 -64.9762 -72.2682 0 255 0 
-193.287 -64.0023 -71.7635 0 255 0 
-198.966 -68.4361 -39.5394 0 255 0 
-213.102 -67.4139 -48.1607 0 255 0 
-206.385 -61.1849 -79.5669 0 255 0 
-197.69 -68.6447 -32.9512 0 255 0 
-196.781 -69.7283 -26.7889 0 255 0 
-197.885 -70.7607 -21.8615 0 255 0 
-216.032 -65.7339 -53.4764 0 255 0 
-203.19 -71.2023 -18.2544 0 255 0 
-212.31 -68.7753 -34.1251 0 255 0 
-209.691 -70.4006 -21.2506 0 255 0 
-198.099 -66.9448 -39.9501 0 255 0 
-198.397 -67.4838 -38.3773 0 255 0 
-211.736 -68.736 -26.7915 0 255 0 
-187.268 -62.0169 -67.431 0 255 0 
-185.392 -62.2074 -60.8948 0 255 0 
-186.49 -63.6451 -54.279 0 255 0 
-186.655 -63.7127 -53.6512 0 255 0 
-190.366 -64.816 -47.492 0 255 0 
-195.237 -65.6595 -43.8395 0 255 0 
-211.195 -65.7258 -40.9511 0 255 0 
-211.741 -67.2806 -32.7426 0 255 0 
-184.836 -61.0891 -63.844 0 255 0 
-189.165 -59.6445 -72.9022 0 255 0 
-192.44 -58.5615 -78.2837 0 255 0 
-211.537 -63.8352 -47.875 0 255 0 
-213.752 -62.422 -53.6858 0 255 0 
-215.686 -62.0929 -56.1175 0 255 0 
-211.362 -64.1983 -46.651 0 255 0 
-184.63 -59.4036 -68.1571 0 255 0 
-188.137 -58.6437 -73.1543 0 255 0 
-193.497 -56.5674 -84.444 0 255 0 
-189.349 -58.9806 -73.8485 0 255 0 
-204.744 -57.1772 -79.2415 0 255 0 
-205.167 -57.6983 -77.7835 0 255 0 
-208.927 -59.041 -70.3174 0 255 0 
-213.553 -59.8151 -65.3914 0 255 0 
-216.49 -60.9282 -58.8453 0 255 0 
-194.107 -53.5429 -98.3061 0 255 0 
-193.718 -55.0179 -91.5164 0 255 0 
-191.009 -56.2618 -78.4919 0 255 0 
-208.393 -57.6515 -69.7208 0 255 0 
-194.448 -62.6748 -41.7584 0 255 0 
-194.903 -63.4112 -26.2798 0 255 0 
-196.89 -64.9756 -18.7232 0 255 0 
-203.566 -64.8172 -17.3387 0 255 0 
-182.11 -57.6885 -60.9258 0 255 0 
-204.08 -53.5025 -86.1822 0 255 0 
-193.575 -60.1973 -40.5125 0 255 0 
-195.656 -62.2551 -32.4535 0 255 0 
-211.068 -57.3302 -60.887 0 255 0 
-196.666 -63.8791 -18.0318 0 255 0 
-207.477 -63.9806 -20.3636 0 255 0 
-180.627 -55.906 -61.5814 0 255 0 
-181.528 -56.6644 -59.7707 0 255 0 
-185.13 -58.0446 -52.9398 0 255 0 
-186.099 -58.3076 -51.2553 0 255 0 
-189.529 -58.9286 -45.7861 0 255 0 
-192.981 -59.9646 -41.3548 0 255 0 
-208.85 -58.3542 -47.2618 0 255 0 
-209.087 -60.7018 -33.6508 0 255 0 
-209.439 -61.9509 -27.984 0 255 0 
-209.375 -62.3164 -26.4207 0 255 0 
-180.611 -54.1038 -68.5874 0 255 0 
-209.023 -56.8676 -54.9687 0 255 0 
-208.57 -59.12 -40.6058 0 255 0 
-190.205 -49.4802 -91.3961 0 255 0 
-183.85 -52.7156 -73.8489 0 255 0 
-188.577 -51.8903 -78.6808 0 255 0 
-190.921 -50.9552 -84.2176 0 255 0 
-202.918 -52.4911 -72.5641 0 255 0 
-204.391 -53.1168 -70.3067 0 255 0 
-206.556 -53.8621 -65.5326 0 255 0 
-206.857 -53.9133 -62.8064 0 255 0 
-208.064 -56.1096 -53.2762 0 255 0 
-208.458 -60.1871 -26.3155 0 255 0 
-179.704 -52.4228 -68.5929 0 255 0 
-200.302 -50.4376 -80.1422 0 255 0 
-202.443 -51.5943 -71.3066 0 255 0 
-205.672 -52.7913 -62.9266 0 255 0 
-206.945 -54.4951 -56.162 0 255 0 
-188.698 -46.419 -99.2699 0 255 0 
-192.832 -45.502 -103.783 0 255 0 
-201.46 -48.987 -86.127 0 255 0 
-191.976 -57.8119 -23.3128 0 255 0 
-192.495 -57.9149 -25.7318 0 255 0 
-205.653 -59.1571 -19.9473 0 255 0 
-176.755 -50.7351 -62.3531 0 255 0 
-182.401 -49.177 -73.7596 0 255 0 
-179.833 -52.3323 -54.0673 0 255 0 
-183.451 -52.9076 -49.6047 0 255 0 
-183.626 -53.5178 -50.2339 0 255 0 
-191.587 -54.9243 -36.6223 0 255 0 
-192.486 -55.7134 -32.7343 0 255 0 
-191.932 -58.3178 -19.5535 0 255 0 
-195.21 -59.0557 -14.6323 0 255 0 
-199.91 -59.0304 -14.8591 0 255 0 
-205.014 -57.447 -19.8801 0 255 0 
-187.905 -53.2279 -42.4309 0 255 0 
-188.385 -53.5277 -42.002 0 255 0 
-205.743 -54.1516 -34.5054 0 255 0 
-205.837 -54.3608 -33.6191 0 255 0 
-206.478 -56.159 -26.2498 0 255 0 
-184.267 -43.8433 -93.2074 0 255 0 
-177.562 -47.7663 -68.5334 0 255 0 
-175.723 -49.2219 -62.5161 0 255 0 
-187.439 -45.5398 -84.6746 0 255 0 
-175.683 -49.6678 -59.1412 0 255 0 
-176.749 -50.1851 -55.5682 0 255 0 
-179.215 -51.1552 -52.7254 0 255 0 
-197.472 -47.2512 -73.6479 0 255 0 
-201.858 -48.8059 -62.8467 0 255 0 
-205 -51.386 -47.6171 0 255 0 
-205.043 -51.4655 -47.8852 0 255 0 
-205.508 -52.9937 -40.6255 0 255 0 
-205.179 -53.2984 -33.6168 0 255 0 
-183.092 -43.105 -93.7225 0 255 0 
-183.738 -43.3512 -91.4971 0 255 0 
-186.558 -44.5688 -84.8 0 255 0 
-181.485 -46.7345 -73.6507 0 255 0 
-182.205 -46.7084 -74.4018 0 255 0 
-185.398 -45.6696 -78.7221 0 255 0 
-190.184 -52.5316 -33.213 0 255 0 
-202.867 -49.1252 -56.3278 0 255 0 
-190.005 -55.3913 -19.0442 0 255 0 
-196.2 -44.382 -80.1627 0 255 0 
-195.926 -45.3456 -73.7955 0 255 0 
-199.53 -46.8316 -64.3422 0 255 0 
-202.151 -48.1424 -55.8809 0 255 0 
-179.14 -40.9282 -95.4776 0 255 0 
-183.747 -40.4768 -100.508 0 255 0 
-191.08 -39.3597 -103.158 0 255 0 
-184.142 -43.725 -78.7954 0 255 0 
-174.004 -47.5866 -55.8759 0 255 0 
-200.327 -41.2086 -92.45 0 255 0 
-182.065 -49.0686 -44.3084 0 255 0 
-196.454 -45.1862 -69.3706 0 255 0 
-188.381 -52.6461 -18.9295 0 255 0 
-188.624 -53.1943 -15.937 0 255 0 
-193.597 -54.2896 -11.0608 0 255 0 
-182.272 -39.051 -100.695 0 255 0 
-181.721 -41.0875 -86.4836 0 255 0 
-196.89 -38.9129 -101.483 0 255 0 
-197.087 -41.0558 -86.4275 0 255 0 
-199.336 -41.1898 -90.5606 0 255 0 
-199.92 -40.6952 -92.497 0 255 0 
-186.804 -49.0813 -34.0491 0 255 0 
-188.274 -50.0178 -28.3097 0 255 0 
-188.398 -50.3781 -26.6503 0 255 0 
-202.379 -48.2937 -41.2979 0 255 0 
-190.003 -53.3461 -12.3066 0 255 0 
-193.306 -53.4753 -10.5718 0 255 0 
-194.187 -53.4958 -10.5697 0 255 0 
-200.076 -52.6441 -14.0158 0 255 0 
-176.353 -39.6487 -89.152 0 255 0 
-171.352 -44.6452 -55.9806 0 255 0 
-177.684 -46.691 -45.7293 0 255 0 
-180.957 -46.9369 -41.1069 0 255 0 
-202.208 -49.352 -26.9339 0 255 0 
-202.324 -49.5205 -26.6975 0 255 0 
-202.242 -50.9388 -19.8173 0 255 0 
-173.843 -37.6447 -97.2559 0 255 0 
-171.672 -43.0381 -62.9035 0 255 0 
-180.95 -40.0248 -79.1578 0 255 0 
-172.283 -44.9921 -52.2679 0 255 0 
-176.244 -46.0546 -46.5638 0 255 0 
-184.972 -47.728 -35.1975 0 255 0 
-187.571 -49.0981 -26.7455 0 255 0 
-199.513 -44.9378 -51.3186 0 255 0 
-200.543 -45.664 -48.1584 0 255 0 
-200.658 -46.3102 -41.5557 0 255 0 
-200.613 -46.972 -37.1871 0 255 0 
-201.102 -47.8087 -34.4204 0 255 0 
-170.77 -37.6478 -91.6604 0 255 0 
-179.53 -38.8389 -81.9569 0 255 0 
-174.312 -41.3225 -68.5761 0 255 0 
-178.038 -40.2134 -73.7359 0 255 0 
-193.875 -41.2777 -65.9135 0 255 0 
-196.165 -42.9125 -57.6141 0 255 0 
-196.421 -43.1201 -58.6827 0 255 0 
-196.84 -43.3625 -57.1948 0 255 0 
-198.353 -43.9607 -48.8904 0 255 0 
-168.535 -36.0398 -92.43 0 255 0 
-169.744 -36.7735 -89.6103 0 255 0 
-174.691 -37.6309 -85.4801 0 255 0 
-170.304 -40.9014 -63.1054 0 255 0 
-173.422 -39.7941 -68.6417 0 255 0 
-178.464 -37.9499 -79.9362 0 255 0 
-192.141 -37.7614 -80.6901 0 255 0 
-191.473 -38.8496 -74.7569 0 255 0 
-187.418 -49.3263 -11.9939 0 255 0 
-199.368 -45.8344 -34.8788 0 255 0 
-170.857 -34.6689 -98.0345 0 255 0 
-175.578 -33.9722 -100.682 0 255 0 
-178.454 -33.789 -101.402 0 255 0 
-183.36 -33.4215 -101.811 0 255 0 
-189.759 -33.6434 -100.649 0 255 0 
-194.231 -36.6783 -86.5254 0 255 0 
-191.249 -38.5533 -74.4506 0 255 0 
-179.215 -43.5678 -37.4686 0 255 0 
-193.718 -41.6065 -51.5872 0 255 0 
-199.734 -46.2426 -20.1412 0 255 0 
-167.535 -39.8001 -56.9342 0 255 0 
-175.552 -36.9844 -74.0625 0 255 0 
-170.474 -41.6298 -48.5854 0 255 0 
-194.329 -34.2139 -95.3742 0 255 0 
-194.819 -34.6893 -93.3658 0 255 0 
-185.103 -45.1848 -22.0543 0 255 0 
-195.914 -42.1648 -42.7599 0 255 0 
-185.194 -45.8221 -19.3338 0 255 0 
-186.569 -47.3733 -11.6671 0 255 0 
-187.015 -47.4155 -10.8133 0 255 0 
-191.999 -47.6231 -8.05717 0 255 0 
-194.137 -47.5597 -8.5929 0 255 0 
-172.854 -35.0067 -82.0622 0 255 0 
-169.734 -39.9921 -47.0178 0 255 0 
-193.531 -33.3621 -93.6985 0 255 0 
-174.049 -41.0358 -41.3693 0 255 0 
-177.395 -41.7658 -37.6009 0 255 0 
-191.285 -37.8248 -64.8542 0 255 0 
-178.561 -42.015 -36.1993 0 255 0 
-191.128 -38.6666 -59.7216 0 255 0 
-182.674 -43.2079 -30.4385 0 255 0 
-184.071 -43.8592 -27.2391 0 255 0 
-197.094 -42.9408 -27.8707 0 255 0 
-198.625 -44.4095 -20.2136 0 255 0 
-198.748 -44.8392 -18.0446 0 255 0 
-198.144 -46.1439 -13.1885 0 255 0 
-165.899 -37.5429 -57.3891 0 255 0 
-166.387 -38.3904 -54.0357 0 255 0 
-168.547 -39.5939 -48.9846 0 255 0 
-188.882 -38.5067 -53.8735 0 255 0 
-190.712 -39.1851 -45.7036 0 255 0 
-192.892 -40.1487 -43.6159 0 255 0 
-194.229 -40.6008 -38.3215 0 255 0 
-196.684 -42.6269 -29.2977 0 255 0 
-164.918 -31.1808 -93.0192 0 255 0 
-167.49 -32.8645 -84.6976 0 255 0 
-171.605 -33.237 -80.3025 0 255 0 
-167.224 -35.7761 -63.5846 0 255 0 
-170.418 -34.6147 -68.9494 0 255 0 
-173.437 -34.5272 -74.2422 0 255 0 
-190.543 -31.9403 -87.4413 0 255 0 
-189.462 -35.2284 -66.1208 0 255 0 
-188.772 -35.888 -59.951 0 255 0 
-187.055 -37.351 -50.8388 0 255 0 
-190.211 -38.649 -44.9233 0 255 0 
-183.929 -42.8488 -19.3189 0 255 0 
-193.619 -39.8855 -36.5492 0 255 0 
-196.151 -41.8425 -28.0984 0 255 0 
-163.919 -30.1457 -91.1567 0 255 0 
-165.72 -31.424 -85.3028 0 255 0 
-167.043 -31.8219 -83.8564 0 255 0 
-187.796 -31.9975 -81.5643 0 255 0 
-188.351 -33.8766 -68.2962 0 255 0 
-186.709 -36.2228 -54.37 0 255 0 
-193.193 -43.6718 -7.43459 0 255 0 
-196.682 -42.2765 -13.0659 0 255 0 
-164.283 -29.7035 -92.9521 0 255 0 
-167.168 -28.6237 -97.2754 0 255 0 
-167.982 -28.442 -97.9206 0 255 0 
-175.65 -27.5968 -100.352 0 255 0 
-187.631 -28.7813 -95.6823 0 255 0 
-187.04 -31.0985 -81.6826 0 255 0 
-186.536 -31.6702 -78.9932 0 255 0 
-186.403 -32.2581 -75.292 0 255 0 
-173.045 -37.9914 -38.9576 0 255 0 
-178.887 -27.4163 -100.018 0 255 0 
-182.039 -27.3877 -98.969 0 255 0 
-185.181 -27.6455 -96.9286 0 255 0 
-187.137 -28.0229 -94.2517 0 255 0 
-188.08 -29.245 -88.3039 0 255 0 
-184.851 -34.8964 -47.1128 0 255 0 
-180.744 -38.6106 -26.9526 0 255 0 
-182.351 -39.3948 -19.2067 0 255 0 
-182.666 -40.0199 -16.8235 0 255 0 
-183.885 -41.3741 -10.9369 0 255 0 
-185.783 -41.8943 -7.73463 0 255 0 
-192.92 -41.4619 -6.80923 0 255 0 
-170.371 -30.1919 -75.3019 0 255 0 
-181.873 -26.8098 -98.5213 0 255 0 
-163.57 -33.6077 -48.8198 0 255 0 
-163.987 -34.4022 -49.6948 0 255 0 
-184.646 -30.2273 -75.3343 0 255 0 
-172.288 -35.5622 -37.2077 0 255 0 
-186.708 -31.7371 -66.701 0 255 0 
-176.751 -36.6714 -32.5017 0 255 0 
-180.493 -37.9468 -26.3422 0 255 0 
-180.288 -37.8916 -26.8905 0 255 0 
-193.678 -37.713 -22.4591 0 255 0 
-194.297 -38.1218 -20.748 0 255 0 
-195.618 -39.6362 -13.0576 0 255 0 
-161.414 -31.3035 -57.6143 0 255 0 
-161.493 -31.255 -57.9575 0 255 0 
-164.635 -31.122 -63.6391 0 255 0 
-163.079 -33.3926 -49.873 0 255 0 
-167.696 -34.5594 -42.0753 0 255 0 
-169.197 -34.8574 -40.2962 0 255 0 
-185.025 -30.9348 -59.6521 0 255 0 
-187.428 -34.6835 -39.2058 0 255 0 
-188.951 -35.3375 -36.9618 0 255 0 
-190.729 -35.7455 -30.1347 0 255 0 
-168.815 -27.5874 -74.8697 0 255 0 
-164.009 -29.9581 -63.639 0 255 0 
-164.439 -29.877 -64.2234 0 255 0 
-167.512 -28.5254 -68.8616 0 255 0 
-184.758 -25.9788 -89.1279 0 255 0 
-167.042 -32.9744 -40.6878 0 255 0 
-184.912 -29.7838 -63.7182 0 255 0 
-183.096 -31.1803 -54.1249 0 255 0 
-182.674 -32.5358 -47.4525 0 255 0 
-183.552 -33.1511 -44.8726 0 255 0 
-186.703 -33.5618 -37.7685 0 255 0 
-190.411 -35.2852 -29.6467 0 255 0 
-193.086 -36.6437 -21.0752 0 255 0 
-161.561 -24.9438 -85.816 0 255 0 
-165.296 -26.4017 -80.4545 0 255 0 
-168.84 -27.7408 -72.979 0 255 0 
-162.772 -23.5274 -92.1885 0 255 0 
-165.722 -22.6248 -95.1815 0 255 0 
-168.483 -22.1152 -96.5658 0 255 0 
-174.668 -22.0979 -97.1953 0 255 0 
-181.642 -24.5237 -82.8567 0 255 0 
-180.962 -25.9695 -76.2211 0 255 0 
-182.011 -27.314 -68.9707 0 255 0 
-183.304 -28.5078 -60.1575 0 255 0 
-158.216 -28.1569 -51.3189 0 255 0 
-179.835 -22.2372 -93.6452 0 255 0 
-181.249 -22.664 -90.1981 0 255 0 
-181.093 -27.7283 -54.1945 0 255 0 
-180.386 -34.905 -11.9852 0 255 0 
-180.653 -35.2192 -10.8798 0 255 0 
-184.098 -35.997 -3.43444 0 255 0 
-188.386 -35.9229 -2.0291 0 255 0 
-165.46 -24.5881 -68.7332 0 255 0 
-161.248 -28.8732 -42.6468 0 255 0 
-165.451 -29.5293 -37.2773 0 255 0 
-170.384 -30.3522 -32.9788 0 255 0 
-174.786 -31.3219 -28.1726 0 255 0 
-181.236 -29.6364 -39.9628 0 255 0 
-178.203 -32.6649 -20.7581 0 255 0 
-178.537 -32.8804 -19.6372 0 255 0 
-179.889 -33.8285 -10.9712 0 255 0 
-192.879 -35.1084 -5.69061 0 255 0 
-156.513 -26.1987 -51.9338 0 255 0 
-157.359 -26.9046 -49.0331 0 255 0 
-178.446 -20.2366 -90.6411 0 255 0 
-160.287 -28.1781 -43.0145 0 255 0 
-178.597 -23.0935 -76.6209 0 255 0 
-178.807 -26.8072 -48.1008 0 255 0 
-180.456 -28.3221 -38.1379 0 255 0 
-177.688 -31.6404 -19.6708 0 255 0 
-184.386 -29.5596 -31.832 0 255 0 
-184.877 -29.6951 -30.8343 0 255 0 
-187.709 -30.6203 -23.4171 0 255 0 
-191.467 -32.4014 -15.8338 0 255 0 
-192.413 -32.8958 -13.5745 0 255 0 
-163.223 -21.4554 -76.8056 0 255 0 
-156.519 -24.3574 -58.8657 0 255 0 
-159.82 -23.2838 -64.122 0 255 0 
-165.322 -22.4348 -74.4217 0 255 0 
-164.588 -23.3081 -68.8284 0 255 0 
-179.322 -23.8744 -62.3484 0 255 0 
-179.43 -24.8845 -54.3225 0 255 0 
-178.022 -26.1754 -45.9887 0 255 0 
-178.988 -27.4843 -40.8465 0 255 0 
-187.315 -29.848 -22.6587 0 255 0 
-157.982 -18.8506 -86.0993 0 255 0 
-158.8 -20.1854 -81.1153 0 255 0 
-162.573 -20.5597 -75.6706 0 255 0 
-155.598 -23.1973 -58.9706 0 255 0 
-175.882 -21.1259 -70.4231 0 255 0 
-178.453 -22.7085 -60.9995 0 255 0 
-169.304 -27.7373 -30.3447 0 255 0 
-190.916 -30.4792 -14.0134 0 255 0 
-162.49 -17.1122 -91.2054 0 255 0 
-164.861 -16.7365 -92.1854 0 255 0 
-158.104 -21.41 -64.5191 0 255 0 
-172.536 -17.2932 -92.704 0 255 0 
-175.933 -19.5666 -77.1048 0 255 0 
-175.667 -20.8727 -70.4245 0 255 0 
-175.644 -20.8645 -69.699 0 255 0 
-177.811 -22.2245 -62.6083 0 255 0 
-163.762 -25.9498 -33.1715 0 255 0 
-157.384 -18.6917 -78.4302 0 255 0 
-159.733 -19.1468 -69.9397 0 255 0 
-172.222 -16.6749 -91.9967 0 255 0 
-155.169 -23.5192 -44.3968 0 255 0 
-175.916 -17.5179 -84.3281 0 255 0 
-176.826 -28.6419 -11.4545 0 255 0 
-178.15 -29.7178 -6.63769 0 255 0 
-179.667 -30.0555 -3.11314 0 255 0 
-182.714 -30.2026 -0.0959854 0 255 0 
-188.604 -30.0955 -0.0689926 0 255 0 
-168.108 -24.8558 -27.3431 0 255 0 
-176.082 -23.427 -41.5512 0 255 0 
-172.584 -25.9266 -22.3641 0 255 0 
-178.699 -24.841 -33.1423 0 255 0 
-175.645 -27.6364 -15.2366 0 255 0 
-191.56 -28.8456 -4.96311 0 255 0 
-152.481 -16.1087 -80.8426 0 255 0 
-154.579 -16.8634 -72.1185 0 255 0 
-151.75 -20.1955 -51.748 0 255 0 
-151.807 -20.2341 -52.6027 0 255 0 
-153.711 -21.8216 -44.5089 0 255 0 
-154.336 -22.1624 -42.9094 0 255 0 
-158.067 -23.2481 -35.7819 0 255 0 
-162.937 -24.1355 -31.1781 0 255 0 
-181.446 -24.4688 -24.83 0 255 0 
-182.59 -24.9353 -23.4624 0 255 0 
-185.47 -25.8331 -19.0735 0 255 0 
-188.403 -26.4586 -14.0942 0 255 0 
-189.676 -26.9356 -11.8817 0 255 0 
-154.844 -13.7904 -86.8106 0 255 0 
-154.077 -16.6914 -71.1461 0 255 0 
-152.976 -16.9841 -65.965 0 255 0 
-151.311 -17.7421 -59.9427 0 255 0 
-172.67 -15.1205 -77.7718 0 255 0 
-175.104 -18.6093 -56.3977 0 255 0 
-175.371 -19.15 -54.4903 0 255 0 
-174.635 -20.0945 -48.1161 0 255 0 
-174.611 -21.0029 -41.4548 0 255 0 
-174.923 -21.4024 -39.9327 0 255 0 
-176.772 -22.6405 -33.4931 0 255 0 
-177.749 -23.0491 -30.8764 0 255 0 
-181.173 -23.9566 -24.2208 0 255 0 
-148.788 -13.3417 -82.0346 0 255 0 
-149.629 -15.017 -74.6753 0 255 0 
-151.885 -16.1898 -66.1906 0 255 0 
-171.945 -16.1625 -63.1885 0 255 0 
-172.33 -16.5784 -63.8957 0 255 0 
-172.767 -16.8382 -62.9446 0 255 0 
-174.266 -17.98 -54.7885 0 255 0 
-174.252 -25.008 -12.1706 0 255 0 
-153.923 -12.2247 -86.9202 0 255 0 
-155.887 -11.7284 -87.8954 0 255 0 
-169.48 -11.6341 -85.5817 0 255 0 
-171.016 -13.1375 -77.9617 0 255 0 
-170.524 -14.1363 -73.963 0 255 0 
-170.28 -14.697 -71.344 0 255 0 
-176.971 -25.5283 -2.74395 0 255 0 
-149.192 -15.3486 -60.1686 0 255 0 
-163.656 -10.6683 -88.3968 0 255 0 
-163.555 -11.093 -88.7234 0 255 0 
-169.391 -11.5872 -85.6876 0 255 0 
-169.372 -13.7926 -71.5613 0 255 0 
-171.765 -16.9108 -48.7353 0 255 0 
-173.015 -22.6972 -9.40305 0 255 0 
-175.621 -23.8139 -3.09319 0 255 0 
-176.674 -23.9489 -1.51546 0 255 0 
-143.511 -11.9499 -77.011 0 255 0 
-146.138 -10.6817 -82.93 0 255 0 
-148.686 -16.1914 -45.4997 0 255 0 
-168.898 -14.1515 -56.8801 0 255 0 
-160.702 -19.0314 -26.2057 0 255 0 
-164.572 -19.8293 -23.235 0 255 0 
-165.803 -20.2021 -22.4026 0 255 0 
-169.829 -21.0477 -16.4677 0 255 0 
-171.69 -21.971 -12.7581 0 255 0 
-183.888 -20.9571 -14.7787 0 255 0 
-182.257 -24.186 1.49467 0 255 0 
-185.532 -23.7374 0.825569 0 255 0 
-145.609 -12.1463 -67.9734 0 255 0 
-146.365 -13.7802 -53.9427 0 255 0 
-147.739 -15.2976 -45.9087 0 255 0 
-148.327 -15.6179 -44.5052 0 255 0 
-151.585 -16.5753 -37.2057 0 255 0 
-152.041 -17.0942 -37.1233 0 255 0 
-166.362 -12.4889 -65.3905 0 255 0 
-156.01 -17.9156 -30.6302 0 255 0 
-160.384 -18.2402 -25.4397 0 255 0 
-172.408 -16.8701 -33.6964 0 255 0 
-172.074 -16.6735 -34.956 0 255 0 
-174.601 -17.9855 -26.0334 0 255 0 
-175.167 -18.5058 -25.6184 0 255 0 
-179.054 -19.3957 -19.6589 0 255 0 
-182.833 -20.0427 -15.1258 0 255 0 
-183.646 -20.2249 -14.1531 0 255 0 
-187.66 -21.5219 -7.5306 0 255 0 
-188.199 -21.9885 -5.19036 0 255 0 
-141.515 -10.1319 -69.9849 0 255 0 
-144.914 -11.3914 -66.5209 0 255 0 
-146.465 -12.458 -60.4668 0 255 0 
-145.792 -13.15 -54.0893 0 255 0 
-145.755 -13.4158 -52.4516 0 255 0 
-166.746 -13.5942 -51.1147 0 255 0 
-169.088 -14.7459 -42.5383 0 255 0 
-169.595 -15.1054 -42.0825 0 255 0 
-171.546 -15.9302 -33.8175 0 255 0 
-138.245 -7.77089 -78.6902 0 255 0 
-143.353 -6.94528 -83.5896 0 255 0 
-140.563 -9.77466 -70.7176 0 255 0 
-166.398 -8.53307 -79.1891 0 255 0 
-163.834 -8.62503 -73.349 0 255 0 
-162.68 -10.9313 -59.6786 0 255 0 
-162.929 -11.2197 -57.8314 0 255 0 
-163.586 -11.8824 -52.4845 0 255 0 
-165.446 -12.8854 -48.199 0 255 0 
-186.777 -19.8214 -5.39206 0 255 0 
-137.896 -7.41489 -78.7662 0 255 0 
-147.854 -6.08286 -85.6775 0 255 0 
-150.381 -5.66013 -86.3106 0 255 0 
-156.258 -5.62099 -86.5613 0 255 0 
-161.109 -8.77119 -67.4857 0 255 0 
-170.936 -18.8043 -4.25742 0 255 0 
-178.032 -16.3497 -16.8035 0 255 0 
-142.544 -8.62572 -61.4158 0 255 0 
-143.291 -11.4677 -47.5556 0 255 0 
-161.653 -5.62585 -83.6781 0 255 0 
-163.161 -5.95314 -80.6091 0 255 0 
-162.489 -7.3568 -73.8222 0 255 0 
-160.917 -10.1976 -53.2923 0 255 0 
-154.59 -13.7096 -27.49 0 255 0 
-163.153 -10.9682 -44.4664 0 255 0 
-166.738 -16.548 -10.0877 0 255 0 
-169.706 -17.6527 -4.37304 0 255 0 
-170.474 -17.7492 -2.9118 0 255 0 
-182.975 -18.0304 0.510071 0 255 0 
-135.194 -6.08498 -72.763 0 255 0 
-160.788 -4.38855 -81.4897 0 255 0 
-146.091 -11.1557 -38.7277 0 255 0 
-150.026 -11.7465 -33.2578 0 255 0 
-158.408 -13.762 -20.9314 0 255 0 
-166.003 -11.3826 -35.7835 0 255 0 
-162.406 -14.9171 -16.0609 0 255 0 
-162.806 -15.1158 -15.7929 0 255 0 
-169.63 -13.1827 -27.624 0 255 0 
-175.416 -17.944 1.51201 0 255 0 
-182.751 -17.5784 0.467255 0 255 0 
-139.947 -6.28246 -61.9035 0 255 0 
-141.306 -9.29231 -43.2076 0 255 0 
-145.715 -10.3225 -37.9054 0 255 0 
-157.513 -6.98801 -61.2089 0 255 0 
-153.495 -12.3798 -27.6456 0 255 0 
-154.192 -12.5673 -26.5743 0 255 0 
-172.615 -12.8821 -19.8251 0 255 0 
-177.104 -13.8316 -14.6506 0 255 0 
-181.781 -14.6147 -8.85688 0 255 0 
-183.178 -15.1526 -6.31879 0 255 0 
-137.594 -5.22773 -65.5477 0 255 0 
-139.165 -7.28444 -53.4109 0 255 0 
-139.878 -7.18002 -55.3764 0 255 0 
-139.084 -8.25163 -48.8365 0 255 0 
-158.063 -3.17611 -75.188 0 255 0 
-142.971 -9.43697 -40.3363 0 255 0 
-157.996 -7.56243 -47.9999 0 255 0 
-158.933 -8.04192 -45.9011 0 255 0 
-161.522 -9.01643 -40.8908 0 255 0 
-163.312 -9.50082 -36.9453 0 255 0 
-165.039 -10.1334 -32.8284 0 255 0 
-166.524 -10.6555 -28.7714 0 255 0 
-168.555 -11.5312 -25.1719 0 255 0 
-165.147 -14.5985 -6.36748 0 255 0 
-132.177 -2.52612 -73.3872 0 255 0 
-133.654 -3.48489 -69.9687 0 255 0 
-137.117 -6.90891 -49.3982 0 255 0 
-154.341 -1.06444 -82.8147 0 255 0 
-154.982 -4.47543 -61.8738 0 255 0 
-155.694 -5.51761 -57.5321 0 255 0 
-156.245 -6.18116 -54.254 0 255 0 
-157.185 -6.62846 -46.3973 0 255 0 
-172.144 -11.7064 -18.6688 0 255 0 
-181.288 -13.1858 -7.11799 0 255 0 
-133.73 -1.32736 -79.2502 0 255 0 
-139.762 -0.395424 -82.9507 0 255 0 
-141.175 -0.207169 -83.3137 0 255 0 
-147.79 0.126694 -83.7667 0 255 0 
-153.839 -0.286224 -81.7703 0 255 0 
-154.201 -2.6392 -67.2819 0 255 0 
-155.218 -2.99301 -69.1648 0 255 0 
-160.353 -7.35664 -37.908 0 255 0 
-156.648 -10.9592 -17.6847 0 255 0 
-159.739 -11.6408 -9.16998 0 255 0 
-135.727 -2.77507 -62.9759 0 255 0 
-155.055 -0.492416 -76.1706 0 255 0 
-154.243 -1.95632 -69.452 0 255 0 
-154.26 -4.17555 -54.6535 0 255 0 
-163.435 -7.90612 -29.3319 0 255 0 
-163.47 -11.6351 -1.75135 0 255 0 
-131.995 -3.55425 -51.6315 0 255 0 
-133.95 -4.8655 -42.9084 0 255 0 
-143.35 -5.76689 -33.0504 0 255 0 
-148.017 -6.60757 -28.2706 0 255 0 
-151.773 -7.58148 -21.3625 0 255 0 
-153.036 -8.15365 -19.1241 0 255 0 
-155.362 -9.27972 -14.8935 0 255 0 
-157.097 -10.0392 -10.1581 0 255 0 
-158.524 -10.4622 -6.21704 0 255 0 
-169.053 -11.6232 1.47871 0 255 0 
-174.754 -12.0312 2.21266 0 255 0 
-178.509 -11.1147 0.0374146 0 255 0 
-133.25 -0.758987 -63.4421 0 255 0 
-132.89 -1.73195 -57.2099 0 255 0 
-130.803 -3.27805 -44.3248 0 255 0 
-133.152 -4.05766 -41.0812 0 255 0 
-151.599 1.9682 -76.8263 0 255 0 
-137.973 -4.80875 -36.2058 0 255 0 
-151.464 -0.887711 -62.7474 0 255 0 
-166.378 -7.47829 -20.6623 0 255 0 
-170.46 -7.60748 -15.102 0 255 0 
-178.887 -9.82563 -3.03351 0 255 0 
-130.677 1.1078 -67.0367 0 255 0 
-128.693 -1.96051 -45.4383 0 255 0 
-129.114 -2.33617 -46.1438 0 255 0 
-142.238 -4.14915 -30.5765 0 255 0 
-151.71 -1.76759 -48.3596 0 255 0 
-154.072 -2.56985 -40.1088 0 255 0 
-154.398 -2.68556 -39.4974 0 255 0 
-151.123 -6.65858 -19.8838 0 255 0 
-158.296 -3.8877 -32.9643 0 255 0 
-160.18 -4.67393 -30.0028 0 255 0 
-154.039 -7.95475 -11.4516 0 255 0 
-161.988 -5.50085 -26.7806 0 255 0 
-165.122 -6.34732 -20.84 0 255 0 
-156.857 -8.51498 -2.54707 0 255 0 
-165.899 -6.54405 -19.7745 0 255 0 
-175.33 -8.12724 -9.63374 0 255 0 
-176.049 -8.23524 -8.61786 0 255 0 
-176.635 -8.81229 -0.383522 0 255 0 
-129.382 3.40327 -73.0527 0 255 0 
-126.988 0.251358 -53.577 0 255 0 
-145.783 4.57935 -79.2895 0 255 0 
-131.57 -2.12599 -36.7935 0 255 0 
-148.995 2.9382 -70.852 0 255 0 
-136.691 -3.42971 -33.6289 0 255 0 
-149.332 0.803772 -58.6063 0 255 0 
-149.669 0.397644 -55.94 0 255 0 
-150.463 -0.618698 -48.8468 0 255 0 
-151.033 -1.03999 -46.4724 0 255 0 
-162.628 -8.66236 0.730675 0 255 0 
-174.993 -7.25252 -8.81855 0 255 0 
-132.196 4.72581 -78.3474 0 255 0 
-128.269 2.1622 -59.139 0 255 0 
-139.577 5.38927 -80.5225 0 255 0 
-146.87 3.50644 -65.9992 0 255 0 
-147.486 2.70657 -64.1817 0 255 0 
-148.332 1.60492 -56.2824 0 255 0 
-128.637 3.66281 -65.2502 0 255 0 
-145.071 5.60156 -77.6686 0 255 0 
-146.764 4.8024 -71.7717 0 255 0 
-146.122 3.86446 -64.7265 0 255 0 
-145.133 -3.03452 -21.768 0 255 0 
-157.27 -1.94892 -30.8611 0 255 0 
-150.496 -5.4686 -4.4268 0 255 0 
-133.089 -0.807549 -25.8543 0 255 0 
-134.021 -1.29922 -27.632 0 255 0 
-138.864 -1.51048 -23.1023 0 255 0 
-139.585 -1.86498 -24.5918 0 255 0 
-144.272 -2.40618 -20.0232 0 255 0 
-147.419 -3.23988 -13.4513 0 255 0 
-147.713 -3.39485 -12.7827 0 255 0 
-148.004 -3.60552 -13.3132 0 255 0 
-160.016 -1.485 -21.9688 0 255 0 
-155.414 -5.77896 0.997299 0 255 0 
-162.229 -5.46187 2.01298 0 255 0 
-164.635 -5.33263 1.96313 0 255 0 
-168.772 -5.5142 1.44089 0 255 0 
-172.46 -4.57671 -1.38747 0 255 0 
-125.723 2.07788 -39.6688 0 255 0 
-143.166 7.53514 -73.0686 0 255 0 
-126.241 1.85751 -38.1276 0 255 0 
-128.836 0.848679 -30.6286 0 255 0 
-129.497 0.487068 -29.7384 0 255 0 
-145.724 3.74541 -50.0259 0 255 0 
-155.694 0.604362 -28.5449 0 255 0 
-168.73 -3.04292 -10.6931 0 255 0 
-172.127 -3.57713 -3.38172 0 255 0 
-123.017 3.99722 -48.2027 0 255 0 
-123.324 3.69461 -46.5884 0 255 0 
-128.549 1.12697 -30.1418 0 255 0 
-131.193 0.0690613 -21.5506 0 255 0 
-146.481 3.43672 -41.8897 0 255 0 
-136.754 -0.609222 -18.632 0 255 0 
-147.329 3.09103 -40.0645 0 255 0 
-142.229 -1.06331 -15.5291 0 255 0 
-151.387 2.21553 -32.9008 0 255 0 
-158.8 -0.24128 -21.9614 0 255 0 
-148.058 -3.02864 1.53267 0 255 0 
-159.236 -0.126694 -19.8428 0 255 0 
-163.058 -0.712097 -13.2406 0 255 0 
-163.336 -1.1868 -13.8305 0 255 0 
-165.959 -1.8055 -11.7474 0 255 0 
-168.238 -2.11424 -9.57545 0 255 0 
-170.971 -3.2984 -1.79588 0 255 0 
-126.174 7.78619 -66.184 0 255 0 
-124.375 7.38737 -60.1285 0 255 0 
-122.714 5.81273 -54.0617 0 255 0 
-124.729 3.77521 -38.0288 0 255 0 
-142.203 6.73462 -57.7303 0 255 0 
-143.435 5.80809 -50.6612 0 255 0 
-144.142 5.07819 -46.3748 0 255 0 
-144.635 -1.58968 -6.64683 0 255 0 
-128.264 9.7406 -72.1549 0 255 0 
-133.527 10.545 -75.8806 0 255 0 
-121.951 6.15707 -46.4135 0 255 0 
-137.042 10.7289 -75.1786 0 255 0 
-138.011 10.7778 -74.2602 0 255 0 
-140.736 9.10558 -66.8556 0 255 0 
-140.979 7.87602 -59.0448 0 255 0 
-128.804 1.07175 -15.9149 0 255 0 
-133.613 1.09915 -12.1356 0 255 0 
-153.717 -1.49619 4.09943 0 255 0 
-162.36 -1.37219 1.61961 0 255 0 
-136.764 11.207 -74.6108 0 255 0 
-139.78 10.2427 -67.0728 0 255 0 
-139.768 9.79547 -64.2729 0 255 0 
-142.431 6.44711 -43.4741 0 255 0 
-132.685 1.85457 -10.1673 0 255 0 
-145.585 5.50775 -35.0585 0 255 0 
-138.94 0.975464 -8.75045 0 255 0 
-141.879 -0.129982 -0.243263 0 255 0 
-157.041 2.53259 -15.2882 0 255 0 
-165.151 0.718964 -3.73624 0 255 0 
-128.054 11.9141 -71.6845 0 255 0 
-125.126 4.44238 -22.9829 0 255 0 
-125.034 4.78879 -24.1646 0 255 0 
-153.113 4.06438 -23.155 0 255 0 
-146.199 -0.0220871 4.96497 0 255 0 
-153.408 0.00173187 4.61814 0 255 0 
-153.815 0.0400085 4.5023 0 255 0 
-124.364 11.9542 -66.2367 0 255 0 
-122.06 8.10103 -38.379 0 255 0 
-123.156 7.2623 -33.7201 0 255 0 
-123.56 7.00531 -31.1662 0 255 0 
-138.902 9.93616 -51.3653 0 255 0 
-123.395 4.4884 -17.3784 0 255 0 
-125.435 3.51387 -9.3857 0 255 0 
-125.78 3.19769 -10.0186 0 255 0 
-159.637 1.52322 1.29046 0 255 0 
-120.814 11.4078 -53.0769 0 255 0 
-120.257 10.0794 -46.5135 0 255 0 
-120.839 9.3264 -42.7921 0 255 0 
-137.909 11.7659 -60.2329 0 255 0 
-123.561 6.63049 -22.8013 0 255 0 
-120.738 4.79703 -11.9646 0 255 0 
-140.028 8.70856 -37.3433 0 255 0 
-146.378 7.31604 -26.868 0 255 0 
-136.046 2.7514 -2.49219 0 255 0 
-147.87 6.69246 -25.5969 0 255 0 
-147.991 6.57164 -25.8601 0 255 0 
-151.543 5.51135 -17.318 0 255 0 
-151.418 5.52567 -18.0582 0 255 0 
-155.168 4.50778 -11.0846 0 255 0 
-153.377 1.93391 4.6889 0 255 0 
-159.309 3.59398 -6.39813 0 255 0 
-159.693 3.52051 -5.60354 0 255 0 
-159.877 3.36063 -6.13528 0 255 0 
-123.403 14.2954 -66.2568 0 255 0 
-122.864 13.6521 -64.2757 0 255 0 
-122.085 12.6555 -59.4486 0 255 0 
-136.81 12.1178 -52.2444 0 255 0 
-136.459 11.4243 -45.2738 0 255 0 
-137.346 10.9226 -47.5059 0 255 0 
-137.5 10.4696 -44.9285 0 255 0 
-137.937 10.1161 -38.3205 0 255 0 
-139.477 9.34615 -36.1761 0 255 0 
-130.14 4.37524 -4.72486 0 255 0 
-127.835 16.088 -70.9969 0 255 0 
-134.551 15.9678 -69.5788 0 255 0 
-135.916 15.5507 -66.7774 0 255 0 
-136.298 14.2323 -59.7589 0 255 0 
-122.054 9.79736 -30.9626 0 255 0 
-136.203 13.8646 -57.7931 0 255 0 
-111.718 6.32248 -7.99195 0 255 0 
-123.218 5.91765 -5.0747 0 255 0 
-129.481 5.03804 -3.20078 0 255 0 
-153.882 5.79703 -8.58066 0 255 0 
-156.664 4.51778 0.261421 0 255 0 
-101.675 7.02986 -4.22498 0 255 0 
-102.356 6.95959 -5.136 0 255 0 
-106.471 6.4348 -6.57183 0 255 0 
-107.232 6.51512 -2.74287 0 255 0 
-107.753 6.58978 -2.54061 0 255 0 
-116.231 8.23105 -12.2431 0 255 0 
-120.394 8.3185 -16.8875 0 255 0 
-115.915 6.56436 -4.61419 0 255 0 
-116.466 6.27811 -5.56815 0 255 0 
-116.912 6.58215 -4.72816 0 255 0 
-142.117 9.77405 -28.0906 0 255 0 
-132.266 5.62515 3.21684 0 255 0 
-133.339 5.32625 3.51071 0 255 0 
-144.985 8.82483 -19.4822 0 255 0 
-139.177 4.46277 5.9299 0 255 0 
-148.192 8.00677 -11.0656 0 255 0 
-127.75 18.0976 -70.5791 0 255 0 
-100.295 7.80049 -5.7898 0 255 0 
-112.195 8.6228 -10.5383 0 255 0 
-134.043 15.4695 -53.2266 0 255 0 
-121.46 10.7674 -23.108 0 255 0 
-134.239 13.2884 -39.1913 0 255 0 
-127.272 7.0493 2.00402 0 255 0 
-132.914 5.84529 4.27028 0 255 0 
-138.913 5.5314 6.54008 0 255 0 
-140.004 5.5087 6.7503 0 255 0 
-145.657 5.63493 6.78458 0 255 0 
-150.001 6.46472 4.64614 0 255 0 
-133.533 18.7705 -67.1099 0 255 0 
-104.935 8.98697 -8.78659 0 255 0 
-120.368 13.0551 -30.8902 0 255 0 
-120.781 12.4912 -28.3797 0 255 0 
-150.643 8.71536 -1.99047 0 255 0 
-119.816 18.5155 -58.864 0 255 0 
-93.3236 8.96077 -1.87669 0 255 0 
-96.4053 10.2054 -6.86655 0 255 0 
-118.985 14.7396 -38.665 0 255 0 
-136.018 13.6046 -30.1962 0 255 0 
-121.303 8.33894 0.615349 0 255 0 
-136.954 13.0711 -29.4367 0 255 0 
-139.568 12.0863 -22.7396 0 255 0 
-139.696 11.9935 -21.4323 0 255 0 
-140.919 11.3239 -14.2257 0 255 0 
-142.461 10.548 -13.1458 0 255 0 
-146.615 9.63667 -7.76195 0 255 0 
-147.905 8.43037 4.30823 0 255 0 
-150.705 8.62592 -1.15797 0 255 0 
-87.937 10.2001 -4.11006 0 255 0 
-119.738 18.6714 -58.7606 0 255 0 
-91.8495 10.1477 1.21761 0 255 0 
-119.231 17.6216 -52.2306 0 255 0 
-118.085 16.8297 -46.3806 0 255 0 
-118.573 15.7109 -38.3712 0 255 0 
-130.781 17.6603 -46.3201 0 255 0 
-131.265 17.1874 -46.9863 0 255 0 
-131.847 15.8648 -39.3572 0 255 0 
-112.741 9.71603 3.52872 0 255 0 
-112.996 9.50461 3.00262 0 255 0 
-132.519 15.5336 -35.6152 0 255 0 
-124.661 9.25247 6.62733 0 255 0 
-84.4881 11.1731 1.6511 0 255 0 
-84.8465 10.8156 0.894081 0 255 0 
-119.269 21.3575 -66.0794 0 255 0 
-121.389 22.1164 -68.8987 0 255 0 
-118.903 19.9075 -55.0741 0 255 0 
-132.427 21.3297 -64.7017 0 255 0 
-98.6104 10.1622 2.22674 0 255 0 
-107.347 12.1388 -9.98048 0 255 0 
-132.579 20.3036 -59.8149 0 255 0 
-131.088 19.2108 -53.7226 0 255 0 
-109.826 12.366 -10.6578 0 255 0 
-105.022 10.4584 3.89512 0 255 0 
-130.692 17.8927 -47.0307 0 255 0 
-118.803 9.94559 5.68876 0 255 0 
-136.516 13.8492 -15.5557 0 255 0 
-138.864 10.1752 7.07035 0 255 0 
-144.733 11.5772 -4.17926 0 255 0 
-94.4567 13.0256 -7.68647 0 255 0 
-96.2278 13.0281 -7.89712 0 255 0 
-127.651 22.3741 -69.5766 0 255 0 
-103.371 13.0876 -9.12106 0 255 0 
-118.389 15.9457 -23.7328 0 255 0 
-104.417 11.5803 5.20127 0 255 0 
-114.094 13.4968 -12.8443 0 255 0 
-117.523 10.7838 7.32114 0 255 0 
-79.2896 12.7702 -0.929016 0 255 0 
-83.0551 13.3754 -5.38886 0 255 0 
-89.8547 13.7673 -7.38052 0 255 0 
-117.692 21.2645 -51.9666 0 255 0 
-117.055 15.4611 -17.387 0 255 0 
-110.197 11.996 7.5304 0 255 0 
-130.83 17.7238 -32.2694 0 255 0 
-133.076 16.2381 -23.5959 0 255 0 
-123.366 11.0882 8.87255 0 255 0 
-128.554 11.1407 8.79527 0 255 0 
-130.558 11.1988 8.55282 0 255 0 
-138.824 14.2059 -6.49491 0 255 0 
-141.901 13.1236 2.18808 0 255 0 
-81.9777 14.7276 -5.62238 0 255 0 
-116.298 19.7688 -34.0238 0 255 0 
-116.42 19.1986 -31.0846 0 255 0 
-130.558 23.5973 -60.1672 0 255 0 
-116.802 17.8876 -24.1781 0 255 0 
-115.848 12.5972 9.44936 0 255 0 
-133.944 15.9366 -10.5792 0 255 0 
-136.406 15.2409 -7.54876 0 255 0 
-138.29 14.8407 -5.11539 0 255 0 
-141.021 13.6904 1.86379 0 255 0 
-89.9988 13.7966 5.59209 0 255 0 
-115.837 21.0376 -38.52 0 255 0 
-128.16 23.7018 -54.2238 0 255 0 
-112.15 17.1209 -12.9141 0 255 0 
-115.392 17.8873 -17.6933 0 255 0 
-128.622 19.8029 -27.8236 0 255 0 
-129.254 19.0217 -25.0888 0 255 0 
-129.895 17.8349 -17.9408 0 255 0 
-130.176 17.6162 -16.7345 0 255 0 
-130.772 17.2909 -17.7624 0 255 0 
-133.102 16.7158 -8.89231 0 255 0 
-115.438 25.5334 -59.667 0 255 0 
-115.308 25.7825 -60.2257 0 255 0 
-116.271 23.7112 -52.0794 0 255 0 
-115.586 22.6979 -45.6977 0 255 0 
-115.066 20.8712 -31.2955 0 255 0 
-128.91 24.8576 -57.4781 0 255 0 
-127.176 21.9067 -40.0027 0 255 0 
-128.009 20.6965 -32.7043 0 255 0 
-116.226 27.7779 -65.811 0 255 0 
-114.915 26.3886 -59.7648 0 255 0 
-89.0361 16.3271 7.27619 0 255 0 
-93.0834 16.3295 7.32577 0 255 0 
-128.765 26.821 -60.1998 0 255 0 
-103.935 18.5533 -9.3173 0 255 0 
-127.167 25.7794 -54.1765 0 255 0 
-126.103 24.8528 -49.7325 0 255 0 
-126.119 24.1117 -47.6439 0 255 0 
-127.318 20.6665 -25.5762 0 255 0 
-132.967 16.1739 5.72894 0 255 0 
-135.92 16.5946 -0.0776749 0 255 0 
-81.1223 18.5321 -6.10199 0 255 0 
-89.0101 19.1587 -7.29556 0 255 0 
-121.216 28.3757 -68.9265 0 255 0 
-93.8091 18.9402 -7.64634 0 255 0 
-95.7188 19.0721 -7.77781 0 255 0 
-126.781 28.1781 -66.6888 0 255 0 
-96.2807 16.3602 7.5826 0 255 0 
-112.395 22.2163 -25.1949 0 255 0 
-102.527 16.4545 8.98846 0 255 0 
-108.411 16.3953 10.4696 0 255 0 
-115.64 16.5642 11.0084 0 255 0 
-127.304 19.4862 -11.2084 0 255 0 
-112.404 25.5156 -39.1323 0 255 0 
-102.943 20.1136 -9.32815 0 255 0 
-104.697 20.4418 -10.1986 0 255 0 
-124.916 26.2142 -47.7559 0 255 0 
-124.384 24.7198 -33.4512 0 255 0 
-124.151 21.914 -19.3691 0 255 0 
-123.747 17.1689 9.66381 0 255 0 
-124.19 18.0721 8.99957 0 255 0 
-130.051 19.2881 -2.41941 0 255 0 
-124.865 17.3666 9.17525 0 255 0 
-129.512 18.7697 4.59641 0 255 0 
-110.155 24.1553 -25.8811 0 255 0 
-124.808 21.376 -5.42083 0 255 0 
-128.921 19.9139 0.184784 0 255 0 
-109.945 26.0669 -32.9064 0 255 0 
-110.15 26.2424 -34.1281 0 255 0 
-106.785 22.9727 -13.7031 0 255 0 
-122.82 28.2697 -44.1962 0 255 0 
-109.552 23.3174 -17.2722 0 255 0 
-121.636 22.7136 -13.5344 0 255 0 
-124.906 21.3716 -4.87376 0 255 0 
-126.995 20.3023 3.66092 0 255 0 
-111.836 30.0336 -53.1606 0 255 0 
-111.617 30.2086 -52.5315 0 255 0 
-111.052 29.1279 -46.3866 0 255 0 
-110.285 27.8269 -39.8689 0 255 0 
-121.789 28.728 -41.2967 0 255 0 
-121.921 27.424 -34.1766 0 255 0 
-121.86 26.0033 -27.4098 0 255 0 
-112.38 32.4005 -59.829 0 255 0 
-109.769 30.8225 -46.7389 0 255 0 
-106.798 27.1263 -27.0183 0 255 0 
-122.958 30.6113 -47.6552 0 255 0 
